ply
format ascii 1.0
element vertex 724
property float x
property float y
property float z
property uchar red
property uchar green
property uchar blue
property float nx
property float ny
property float nz
end_header
16.660000 -8.175900 4.324270 31 31 31 -0.023530 0.997801 0.061958
16.652100 -8.832640 7.004790 16 16 16 -0.030419 0.555126 -0.831210
16.646601 -8.354500 10.105800 0 0 0 -0.005603 0.996708 0.080876
16.678600 -8.795170 11.261200 3 3 3 -0.053630 0.548152 -0.834658
16.664200 -8.339170 12.982100 3 3 3 -0.074840 0.994352 0.075254
16.712099 -8.735240 14.725000 1 1 1 0.034497 0.958611 -0.282621
16.662001 -8.392520 16.308100 4 4 4 -0.006133 0.999575 0.028491
16.645399 -8.412590 19.211300 14 14 14 0.072193 0.997329 0.011112
16.643200 -8.465150 20.505800 2 2 2 -0.002887 0.999413 0.034126
16.705000 -8.817050 23.130400 2 2 2 0.101786 0.994508 -0.024346
16.741199 -8.517430 24.473499 32 32 32 0.066723 0.983677 -0.167116
16.668301 -8.587180 27.076300 5 5 5 0.143630 0.989631 0.000968
16.636499 -8.598390 28.408400 4 4 4 0.050508 0.988896 -0.139765
16.655399 -8.636360 31.040899 19 19 19 -0.013197 0.999722 0.019524
17.934200 -8.651050 32.431599 23 23 23 -0.009792 0.999817 0.016439
17.839100 -8.689040 34.994999 17 17 17 -0.001969 0.999921 0.012390
16.741600 -8.737310 36.362499 6 6 6 -0.000493 0.999924 0.012296
16.643400 -8.821010 39.258499 76 76 76 0.005092 0.946916 -0.321441
17.468201 6.642390 -1.826670 2 2 2 -0.086252 -0.826934 0.555644
16.675400 12.023300 3.970780 7 7 7 -0.038606 -0.997128 -0.065163
16.671200 12.020100 4.319060 7 7 7 -0.027343 -0.967728 -0.250508
16.828699 11.940400 7.432930 7 7 7 -0.235735 -0.965084 -0.114199
16.750700 11.916100 8.465690 7 7 7 -0.000147 -0.998688 -0.051209
16.677299 11.893900 10.912800 1 1 1 0.192577 -0.866511 -0.460514
17.861300 13.009800 13.964700 0 0 0 0.621941 -0.485659 -0.614268
16.838499 11.847100 14.511300 1 1 1 0.003151 -0.999657 -0.025984
16.699400 11.778100 18.115801 2 2 2 0.085099 -0.993129 -0.080335
16.667200 11.755200 18.311899 7 7 7 0.017209 -0.996273 -0.084525
16.649300 11.708600 21.694000 4 4 4 0.006018 -0.999936 -0.009580
16.678900 11.666800 22.671200 6 6 6 0.006710 -0.997669 -0.067907
16.737400 11.643000 25.305401 4 4 4 0.003472 -0.999263 0.038231
16.678400 11.632600 26.283600 7 7 7 0.004664 -0.997830 -0.065680
16.824800 11.607200 28.880699 4 4 4 0.002266 -0.999760 0.021808
16.771299 11.568000 32.448898 4 4 4 0.006243 -0.999815 0.018171
16.701099 11.486200 36.114201 2 2 2 -0.012579 -0.999898 -0.006778
16.728800 11.505100 36.283298 1 1 1 -0.002419 -0.999986 -0.004799
16.903601 11.405700 39.730099 0 0 0 0.010945 -0.999333 -0.034829
17.312401 11.492300 40.292702 4 4 4 -0.001348 -0.999974 -0.007014
16.780199 14.762700 -1.002920 1 1 1 0.230306 -0.678266 0.697793
17.780300 13.369700 7.222800 18 18 18 0.042998 -0.185815 -0.981643
16.677000 13.173000 10.796200 1 1 1 0.048667 -0.146078 -0.988075
16.764000 13.204900 14.005900 0 0 0 0.490949 -0.386507 -0.780757
17.557600 15.565600 -0.984976 1 1 1 0.049953 -0.938284 -0.342239
16.784901 18.857201 0.024180 0 0 0 -0.110932 0.044258 -0.992842
18.249300 19.541901 0.617022 14 14 14 -0.190757 0.087356 -0.977743
17.611500 22.598101 3.987410 12 12 12 -0.364805 -0.883166 0.294846
18.535000 23.657101 4.084580 2 2 2 0.161634 -0.201682 -0.966022
17.143101 25.862200 0.637037 1 1 1 -0.790083 -0.553563 -0.263319
17.053301 25.378700 3.997260 16 16 16 0.308579 -0.069979 -0.948621
18.332100 27.656000 0.597806 0 0 0 -0.185854 -0.982195 -0.027413
17.114799 32.892601 -0.094940 12 12 12 -0.997417 0.034682 0.062896
17.116100 32.894901 0.324406 10 10 10 -0.997283 0.046746 0.056926
16.794300 31.306000 3.325680 7 7 7 -0.952197 0.302912 -0.039560
17.038200 33.257702 -0.154375 11 11 11 -0.985634 -0.153619 0.070194
17.046301 33.170300 1.357780 12 12 12 -0.856544 -0.516027 -0.006936
17.054600 33.185902 2.297160 12 12 12 -0.881542 -0.472102 -0.001955
16.740900 41.261299 -3.035260 87 87 87 -0.778895 0.298041 0.551810
16.682501 41.266602 -1.706040 91 91 91 0.662805 -0.299948 -0.686091
16.709999 44.518700 -3.008800 255 255 255 -0.642467 0.217721 0.734734
18.472799 45.861301 -2.967820 42 42 42 0.551411 -0.305093 -0.776443
16.652800 58.765400 -3.404550 3 3 3 -0.028744 -0.015111 0.999473
16.897900 80.957901 -3.117820 12 12 12 -0.047580 -0.675539 0.735788
16.830500 81.661697 -2.983290 42 42 42 -0.083970 -0.996421 0.009712
19.070299 -10.083200 5.855980 1 1 1 -0.828489 -0.422892 -0.367107
18.806700 -9.853840 6.348440 8 8 8 -0.720590 -0.491952 -0.488604
19.100100 -8.943940 27.106001 4 4 4 0.097637 0.992279 0.076485
18.674999 -9.040240 39.246601 80 80 80 0.085365 0.984792 0.151319
18.682600 -8.083440 -0.635527 36 36 36 -0.000367 0.999903 0.013929
18.642900 -8.094160 0.316369 34 34 34 0.000988 0.999965 0.008365
18.693300 -8.144540 2.331550 33 33 33 -0.002741 0.999983 0.005127
18.678400 -8.166830 4.308070 28 28 28 -0.073175 0.964648 0.253178
18.637899 -8.318670 7.235050 7 7 7 -0.215211 0.886740 -0.409118
18.675600 -8.224130 8.317660 46 46 46 -0.005935 0.999819 0.018098
18.868500 -8.338810 11.110900 0 0 0 -0.149994 0.982963 -0.106235
18.712700 -8.610940 13.960400 1 1 1 0.188928 0.978664 0.080767
18.738300 -8.622970 14.284100 2 2 2 0.163875 0.985110 -0.051999
18.771700 -8.384100 16.564800 5 5 5 -0.008035 0.999423 0.033014
18.645399 -8.441660 18.304501 2 2 2 -0.181831 0.977571 0.106270
18.942900 -8.434330 20.288601 1 1 1 -0.104097 0.987091 -0.121718
18.637400 -8.498030 23.115299 8 8 8 -0.115029 0.992947 0.028715
19.086201 -8.529490 24.478201 3 3 3 -0.077497 0.996767 0.021216
18.758801 -8.755690 27.079901 3 3 3 -0.032628 0.994699 -0.097517
18.636900 -8.557300 28.476400 20 20 20 -0.023410 0.983542 -0.179158
19.198799 -8.583670 31.061501 17 17 17 -0.006080 0.999459 -0.032334
18.669300 -8.690970 36.382198 28 28 28 -0.009052 0.999449 0.031948
18.649200 -8.797450 39.251499 74 74 74 -0.006186 0.999206 0.039347
18.863899 -5.607190 -1.481290 82 82 82 -0.585716 0.809382 0.042860
20.260401 -4.286170 -1.651040 3 3 3 -0.757983 0.548682 0.352718
20.515400 6.613840 -1.753270 0 0 0 -0.254020 -0.368440 0.894274
19.252199 12.463100 -1.422940 9 9 9 -0.249944 -0.277692 0.927586
18.642300 12.032300 3.908740 6 6 6 -0.008773 -0.999094 -0.041639
18.634701 12.027200 4.309900 6 6 6 0.002654 -0.997948 -0.063976
18.861799 12.006100 7.322330 0 0 0 0.057958 -0.994120 -0.091466
18.827999 11.916600 8.381690 7 7 7 0.003734 -0.998538 -0.053934
18.635201 11.892800 10.898900 4 4 4 -0.002858 -0.999382 0.035032
19.943800 11.591100 13.077700 1 1 1 0.030738 -0.993885 -0.106059
18.636700 11.824800 14.551500 6 6 6 -0.000567 -0.999788 0.020587
18.676001 11.780800 18.045401 2 2 2 0.027702 -0.999558 -0.010747
18.694000 11.759600 18.291500 6 6 6 0.000771 -0.999722 0.023568
18.835199 11.715100 21.702900 5 5 5 0.005841 -0.999979 0.002615
18.670601 11.742100 22.298000 6 6 6 0.009580 -0.999870 0.013006
18.642300 11.657600 25.434500 5 5 5 0.001041 -0.999846 0.017547
18.715900 11.637500 26.314699 5 5 5 -0.002398 -0.998261 -0.058893
18.716299 11.603200 28.939699 5 5 5 0.001315 -0.999268 0.038222
18.641899 11.554800 32.475300 6 6 6 -0.000022 -0.999445 0.033317
20.633699 11.530500 36.834599 5 5 5 0.006151 -0.999891 -0.013459
18.663401 11.433800 39.720402 3 3 3 -0.001279 -0.999665 -0.025867
18.799200 11.484500 40.364498 3 3 3 0.003342 -0.999923 -0.011933
18.651800 14.625700 -1.006170 0 0 0 -0.178310 -0.380722 0.907335
19.319300 14.605600 3.882440 15 15 15 -0.867503 0.485783 -0.107021
19.513800 13.301200 6.249480 0 0 0 -0.976247 -0.214488 -0.030587
19.319099 14.489800 7.250510 19 19 19 -0.111318 0.299527 -0.947572
19.270500 13.708200 10.511500 0 0 0 0.001238 -0.381397 -0.924410
19.379801 15.877300 -1.005180 13 13 13 -0.707509 -0.061425 0.704030
19.861000 15.333300 0.305432 14 14 14 -0.909550 -0.414748 -0.026508
19.869101 15.298500 2.303760 16 16 16 -0.868154 -0.495501 -0.028075
20.018400 18.294500 -1.033450 4 4 4 -0.197403 0.258336 0.945671
19.511600 40.429699 2.092070 22 22 22 -0.768643 0.252009 0.587945
20.059900 40.913399 2.543990 19 19 19 -0.766861 0.257178 0.588034
19.879200 42.139400 1.664090 24 24 24 -0.760372 0.225975 0.608908
20.267500 51.042801 -2.741120 46 46 46 -0.142141 0.078197 0.986753
19.805599 80.591400 -2.622250 67 67 67 -0.334686 -0.575921 0.745855
18.838400 81.492104 -2.926940 51 51 51 -0.203954 -0.954790 -0.216286
20.845400 -8.959890 6.822330 10 10 10 -0.025129 0.628754 -0.777198
20.722601 -8.083060 -0.472079 32 32 32 -0.002789 0.999915 0.012720
20.663200 -8.090270 0.316836 30 30 30 -0.002791 0.999930 0.011526
20.700001 -8.135310 2.314830 40 40 40 -0.000720 0.999998 0.001856
20.677601 -8.157210 4.289800 27 27 27 -0.003083 0.999774 0.021018
20.759600 -8.830720 6.976140 10 10 10 -0.029884 0.646408 -0.762407
20.660500 -8.211870 8.321640 33 33 33 -0.006124 0.999730 0.022433
22.221001 -6.061520 -1.426160 0 0 0 0.035743 0.138847 0.989669
20.766001 -4.339310 -1.169790 10 10 10 -0.927645 0.358067 0.106126
21.078899 -2.822150 -1.174020 9 9 9 -0.399637 0.761138 0.510841
21.235800 6.522910 -1.761280 0 0 0 -0.376012 0.073944 0.923660
21.934601 6.767740 -1.710410 4 4 4 -0.530314 0.225736 0.817197
21.803499 7.916840 -0.689910 5 5 5 -0.488053 -0.610127 0.624139
20.772499 12.043800 3.925790 6 6 6 0.003028 -0.998568 -0.053421
20.635000 12.032600 4.323370 7 7 7 -0.009351 -0.999754 0.020123
20.692400 11.961800 7.374470 1 1 1 -0.036336 -0.997594 -0.059038
20.735600 11.916100 8.427050 6 6 6 -0.001090 -0.998511 -0.054542
20.700399 11.894300 10.960100 4 4 4 0.003761 -0.999534 0.030279
20.769800 11.827200 14.545800 3 3 3 0.004208 -0.999726 0.023012
20.671700 11.768900 18.163200 5 5 5 -0.035944 -0.999313 -0.008976
20.725901 11.765500 18.303499 6 6 6 -0.034026 -0.998611 -0.040219
20.737700 11.736200 21.676600 3 3 3 0.002220 -0.999932 -0.011459
20.677500 11.735200 22.328800 6 6 6 0.005498 -0.999950 0.008319
20.858900 11.663900 25.272200 4 4 4 0.005517 -0.999409 0.033921
20.721901 11.618900 28.861401 4 4 4 0.005097 -0.999347 0.035772
20.703800 11.572400 32.479301 5 5 5 0.005805 -0.999888 0.013819
20.716499 11.542900 36.682598 4 4 4 0.007502 -0.999895 -0.012402
21.089701 11.507200 40.041302 2 2 2 0.006756 -0.999924 -0.010343
21.120701 11.489300 40.330101 4 4 4 0.004478 -0.999903 -0.013179
20.925200 14.812400 -1.009250 1 1 1 -0.551395 -0.833679 0.030711
22.520000 13.207700 5.869360 1 1 1 -0.494453 -0.434881 0.752593
20.985399 15.783900 -0.426921 3 3 3 -0.021880 0.015496 0.999641
20.998899 15.752500 2.024640 4 4 4 0.282266 -0.958880 0.029587
21.335100 17.255400 0.803134 1 1 1 -0.703515 0.687538 0.179882
21.372400 17.239599 3.168600 2 2 2 -0.668905 0.620378 -0.409508
21.959000 19.567801 -0.994107 0 0 0 -0.524199 -0.178016 0.832782
21.620899 19.904400 3.931150 10 10 10 -0.429360 -0.016063 -0.902990
21.164000 23.239000 4.004780 0 0 0 -0.162092 0.105377 -0.981133
21.507900 42.636200 0.749343 25 25 25 0.504524 -0.296225 -0.810991
22.719000 -9.663100 5.314660 9 9 9 -0.974020 0.080943 -0.211501
22.717199 -9.662830 6.296190 9 9 9 -0.916226 -0.296825 -0.269120
22.725000 -8.083600 -0.021601 23 23 23 -0.005322 0.999934 0.010226
22.834801 -8.090210 0.366442 25 25 25 -0.004101 0.999933 0.010835
22.696800 -8.138490 2.331280 25 25 25 -0.008448 0.999961 -0.002734
22.707899 -8.597220 4.727050 6 6 6 -0.163015 0.878426 0.449214
22.723301 -8.799530 6.304510 9 9 9 -0.903986 0.323065 -0.280070
22.696199 -8.204700 8.312640 29 29 29 -0.003520 0.999777 0.020836
22.945299 -6.259110 -1.442650 1 1 1 -0.592930 0.182523 0.784295
22.837900 -6.169390 1.018320 26 26 26 -0.191390 0.036819 -0.980823
23.627399 -5.248590 2.918590 28 28 28 -0.998613 0.031453 0.042218
23.465300 -2.932120 -0.373326 7 7 7 -0.043177 0.998980 -0.013182
23.565100 -4.831790 1.677560 12 12 12 -0.991216 -0.027146 0.129440
22.720600 -2.809650 -1.145550 4 4 4 -0.102502 0.984136 0.144809
23.587000 -2.377510 1.874120 4 4 4 -0.980835 -0.016302 0.194157
22.906401 4.943550 -1.606240 0 0 0 -0.343071 -0.465379 0.815920
23.406799 4.014090 0.321172 7 7 7 0.111816 -0.606786 -0.786961
22.637100 6.581230 -1.722310 1 1 1 -0.994088 -0.040148 0.100880
22.848801 5.627330 -1.244910 8 8 8 -0.593760 -0.643325 0.483304
22.878300 7.185180 -1.391810 4 4 4 -0.746313 0.477544 0.463646
23.447701 12.516300 -1.372650 2 2 2 -0.036509 -0.181691 0.982678
22.843300 12.043800 3.916220 6 6 6 0.003464 -0.998964 -0.045365
22.688499 12.035500 4.307670 6 6 6 0.001639 -0.999452 -0.033073
22.653700 11.942200 7.429070 5 5 5 -0.024083 -0.998641 -0.046219
22.673901 11.915900 8.460690 6 6 6 -0.003758 -0.999980 -0.005012
22.662001 11.908300 10.956000 5 5 5 0.000901 -0.999933 0.011560
22.735001 11.836500 14.529300 4 4 4 0.003349 -0.999677 0.025177
22.711300 11.784900 18.082399 3 3 3 0.003245 -0.999983 0.004807
22.707199 11.782700 18.322201 6 6 6 0.004217 -0.999977 0.005373
22.675699 11.727300 21.868500 7 7 7 0.003260 -0.999896 0.014047
22.657301 11.754000 22.302099 7 7 7 0.001259 -0.999718 0.023714
22.771299 11.665800 26.191500 7 7 7 -0.002878 -0.999211 -0.039615
22.683201 11.654500 29.442400 5 5 5 0.003482 -0.997565 0.069649
22.668800 11.608800 32.932598 5 5 5 0.012394 -0.999304 -0.035174
23.508499 11.556200 36.762199 5 5 5 0.003521 -0.999932 -0.011099
23.614799 13.575400 -1.167440 69 69 69 -0.049353 -0.255454 0.965561
23.429001 15.164600 3.902030 7 7 7 -0.730433 0.218475 -0.647098
22.820499 17.164301 -0.679629 4 4 4 -0.197070 -0.098212 0.975458
24.132401 15.621400 0.312003 8 8 8 -0.682671 -0.713712 0.156768
23.166800 16.440599 3.926350 12 12 12 -0.527449 0.001881 -0.849585
23.428600 17.621700 -0.845192 6 6 6 -0.792350 -0.213481 0.571495
22.973301 18.580299 0.901032 1 1 1 -0.011882 -0.044805 0.998925
23.581301 19.021400 3.573250 2 2 2 -0.843844 -0.156283 -0.513326
24.024799 19.480700 0.194804 10 10 10 -0.999495 0.010268 -0.030078
24.031500 19.486099 0.310520 11 11 11 -0.999558 0.010168 -0.027930
22.742800 20.781900 3.991160 1 1 1 -0.838256 -0.328133 -0.435495
23.187901 21.347200 3.974500 1 1 1 -0.857541 0.017819 -0.514107
22.645700 24.866199 4.027770 0 0 0 -0.337855 -0.076074 -0.938119
23.985100 26.945700 1.121650 2 2 2 -0.257697 -0.519793 -0.814498
24.433500 27.449499 1.003980 1 1 1 -0.438305 -0.572929 -0.692561
23.075600 50.381901 -1.238790 255 255 255 -0.291297 0.147561 0.945184
23.070200 86.356499 -2.610740 60 60 60 0.091567 -0.094842 -0.991272
26.108500 -8.884100 6.878050 7 7 7 0.013868 0.733819 -0.679203
24.720501 -8.098420 -1.159950 19 19 19 0.016113 0.999842 -0.007476
24.677601 -8.084870 0.374853 31 31 31 0.001060 0.999904 -0.013808
24.646099 -8.109540 2.310520 34 34 34 -0.006422 0.999957 0.006751
25.184601 -8.148030 4.314950 11 11 11 -0.032171 0.998975 0.031841
24.645300 -8.180410 7.366310 26 26 26 -0.078020 0.991381 -0.105247
24.696899 -8.198000 8.308970 28 28 28 -0.000105 0.999783 0.020849
25.976900 -5.190850 0.615474 1 1 1 -0.181582 0.047367 -0.982234
25.275801 -2.001840 -0.837829 2 2 2 -0.310119 0.937258 0.159288
24.759800 4.246480 -0.890948 2 2 2 -0.184752 -0.051860 -0.981416
24.699600 5.525240 -1.080000 5 5 5 -0.079100 -0.931951 0.353852
24.915300 7.175030 -0.344149 2 2 2 -0.088326 -0.283871 0.954786
24.924700 12.392700 -1.310440 14 14 14 -0.035439 -0.166908 0.985335
24.718300 12.055700 3.925320 6 6 6 0.003616 -0.998554 -0.053629
24.693800 12.043700 4.310530 7 7 7 -0.002906 -0.999763 -0.021570
24.815901 11.948500 7.430410 5 5 5 -0.018822 -0.992661 -0.119453
24.650700 11.944800 8.302090 7 7 7 0.000795 -0.999739 -0.022849
24.712900 11.897100 11.082300 7 7 7 0.002248 -0.999726 0.023320
24.665899 11.834100 14.672000 8 8 8 0.003772 -0.998690 0.051034
24.644501 11.783400 18.110600 5 5 5 0.002800 -0.999845 0.017394
24.667101 11.794100 18.324200 7 7 7 0.002950 -0.999994 0.001550
24.712999 11.736200 21.624100 2 2 2 0.003180 -0.999982 0.005182
24.675800 11.756800 22.327600 7 7 7 0.001660 -0.999844 0.017593
24.759501 11.681800 25.305000 5 5 5 0.002937 -0.999648 0.026378
24.638300 11.658400 29.271799 4 4 4 0.005160 -0.997081 0.076175
24.676300 11.600200 33.110500 4 4 4 0.004293 -0.999784 -0.020328
26.063999 11.537300 36.001801 3 3 3 -0.002620 -0.999856 -0.016776
24.869301 13.315100 -1.146020 3 3 3 -0.033418 -0.185530 0.982070
24.835100 15.636900 -0.695731 7 7 7 -0.186733 -0.981937 0.030504
24.661301 15.613500 0.315874 6 6 6 -0.208895 -0.977514 -0.028815
24.683399 15.582900 2.308600 7 7 7 -0.149485 -0.988726 -0.008691
26.425699 25.525900 1.351500 8 8 8 -0.737128 -0.668295 -0.100120
25.074699 28.028500 -0.601982 16 16 16 -0.789733 -0.612676 -0.030808
25.119301 28.006100 0.307852 4 4 4 -0.693715 -0.572514 -0.437020
24.688200 86.286903 -2.691920 33 33 33 0.098918 -0.056938 0.993465
28.056000 -9.468140 5.265230 7 7 7 -0.981603 -0.190930 0.001363
28.045099 -9.425830 6.291310 9 9 9 -0.986046 -0.164276 -0.026957
26.663300 -8.072850 0.178083 23 23 23 -0.015325 0.999845 0.008721
26.821899 -8.084380 0.873666 38 38 38 -0.004929 0.999880 0.014693
26.670900 -8.112050 2.329000 26 26 26 -0.005613 0.999975 0.004261
27.633699 -8.481360 4.865960 7 7 7 -0.531284 0.823688 0.198182
26.870100 -8.248060 7.242000 33 33 33 -0.124211 0.941735 -0.312581
26.708000 -8.198780 8.330730 28 28 28 -0.002500 0.999760 0.021780
28.191000 -6.260730 -1.320410 1 1 1 -0.173712 -0.567164 -0.805077
26.655199 -5.395600 1.329890 255 255 255 0.000127 0.060271 -0.998182
26.820200 -4.733110 8.057670 2 2 2 0.220438 0.010122 -0.975348
26.649200 5.471040 -0.873297 4 4 4 0.007460 -0.456468 0.889708
27.337601 9.385330 -1.428070 3 3 3 -0.093665 0.036609 -0.994931
26.822001 12.341600 -1.324910 31 31 31 -0.068689 -0.225519 0.971814
26.657900 12.060800 3.974790 6 6 6 0.002492 -0.998107 -0.061449
26.733601 12.053800 4.330470 6 6 6 0.001145 -0.997273 -0.073787
26.683599 11.951000 7.468570 7 7 7 0.002526 -0.999716 0.023677
26.642700 11.932300 8.322840 6 6 6 0.004115 -0.998739 -0.050042
26.788000 11.914800 11.161000 9 9 9 0.001636 -0.999996 -0.002183
26.812901 11.843100 14.649600 7 7 7 0.004761 -0.998253 0.058888
26.712900 11.796800 18.108900 4 4 4 0.003107 -0.999761 0.021624
26.720200 11.799900 18.317600 7 7 7 0.002479 -0.999839 0.017768
26.883400 11.748800 21.674601 4 4 4 0.005101 -0.999947 0.008923
26.822599 11.761600 22.312599 6 6 6 0.009405 -0.999896 0.010973
26.835800 11.686100 25.451599 5 5 5 0.003779 -0.998633 0.052130
26.684500 11.656900 29.131901 3 3 3 0.009715 -0.998466 0.054509
26.663601 14.318800 -0.856380 29 29 29 -0.259486 -0.357026 0.897329
27.128201 14.922000 0.368133 25 25 25 -0.869785 0.025502 -0.492772
27.066500 14.708800 3.867870 3 3 3 -0.024451 -0.653860 -0.756221
26.657000 15.637100 -0.537420 7 7 7 -0.089089 -0.995384 -0.035682
26.699900 15.616700 0.326968 7 7 7 -0.046332 -0.998551 -0.027355
26.635000 15.578100 2.305770 8 8 8 0.004218 -0.999942 -0.009889
26.770901 23.855600 -0.670871 5 5 5 -0.976329 0.161440 0.143941
26.954100 24.077299 1.307870 8 8 8 -0.988734 0.088319 -0.120850
26.955500 24.078199 2.309590 3 3 3 -0.997815 0.015300 -0.064276
26.946699 25.251600 -0.685116 14 14 14 -0.942518 -0.331276 0.043769
26.942101 25.183599 0.299468 62 62 62 -0.913096 -0.406798 0.027750
26.952600 25.192499 2.293500 9 9 9 -0.999364 -0.019399 0.029908
30.457500 -12.867400 14.907000 43 43 43 -0.818551 0.335468 0.466299
29.836201 -11.084900 12.770100 56 56 56 -0.976645 0.194004 0.092339
30.485399 -12.789200 14.882400 31 31 31 -0.829643 0.278710 0.483750
29.943199 -10.613500 12.199000 48 48 48 -0.742477 0.658897 0.120758
29.846901 -10.832900 12.764700 56 56 56 -0.961640 0.264611 0.072318
30.561899 -10.661000 14.382100 48 48 48 -0.753322 0.343340 0.560913
29.259199 -8.100420 -1.123530 95 95 95 -0.221327 0.971635 0.083304
28.659901 -8.207090 0.531499 10 10 10 -0.045390 0.998842 -0.015924
28.731600 -8.111340 2.309210 21 21 21 -0.022697 0.999644 -0.013992
28.683500 -8.137320 4.325350 30 30 30 -0.003979 0.999576 0.028846
28.661301 -8.170670 6.300190 34 34 34 -0.002664 0.999823 0.018628
28.735300 -8.192530 8.305190 25 25 25 -0.000729 0.999790 0.020494
30.518299 -8.787220 14.948100 27 27 27 -0.887143 -0.322522 0.330085
28.806200 -6.397350 -1.274910 0 0 0 -0.229177 -0.577801 -0.783341
29.083300 -5.431720 1.227940 255 255 255 -0.624479 0.090591 -0.775770
29.957600 -6.814130 4.605870 25 25 25 -0.565201 0.268827 -0.779923
28.639000 5.917230 -1.315970 5 5 5 -0.136107 0.067011 -0.988425
29.466400 10.157900 -1.391770 1 1 1 -0.107988 -0.260149 0.959511
28.770100 11.482700 -1.353010 1 1 1 -0.136496 -0.408086 0.902682
28.770300 12.070100 3.932360 5 5 5 -0.018483 -0.985159 -0.170645
28.744499 12.059200 4.327330 6 6 6 0.016198 -0.762502 -0.646783
28.694201 11.952300 7.531760 6 6 6 -0.005013 -0.999813 0.018703
28.670700 11.942100 8.315100 5 5 5 -0.004951 -0.999278 -0.037667
28.801800 11.910200 11.070300 6 6 6 -0.007743 -0.999958 -0.004915
28.792999 11.863000 14.734200 7 7 7 -0.001454 -0.999605 0.028058
28.662001 11.807100 18.102699 3 3 3 0.000819 -0.999927 0.012061
28.643101 11.799200 18.299999 6 6 6 -0.001416 -0.999657 0.026136
29.244301 11.744200 21.778000 5 5 5 -0.008532 -0.999766 -0.019883
28.708000 11.781600 22.295900 5 5 5 0.013503 -0.999854 0.010445
28.711700 11.696600 25.461500 4 4 4 0.003842 -0.999173 0.040477
28.635500 13.791300 -0.521737 36 36 36 -0.042504 -0.247160 0.968042
30.098700 13.894300 1.418660 5 5 5 -0.789123 -0.450700 0.417319
28.689400 13.199000 3.837300 4 4 4 0.035926 -0.330253 -0.943209
28.667200 15.627400 -0.318484 6 6 6 0.088229 -0.995029 -0.046173
28.707100 15.601700 0.799163 5 5 5 -0.003425 -0.999898 -0.013850
28.680799 15.586800 2.318650 6 6 6 0.001122 -0.999897 -0.014343
29.600500 79.769203 -2.576080 66 66 66 0.012230 -0.010096 0.999874
30.978800 -13.087800 15.415800 48 48 48 -0.994645 -0.074133 0.072007
30.987301 -13.091800 16.298000 52 52 52 -0.999989 -0.001151 0.004584
31.459400 -13.480700 19.666000 5 5 5 -0.986020 0.163603 -0.031613
30.999500 -12.640900 15.379000 53 53 53 -0.994486 -0.041451 0.096330
30.984600 -12.816800 16.327400 50 50 50 -0.999981 0.003731 0.004809
31.685101 -12.828700 18.298100 51 51 51 -0.923182 0.010221 0.384226
30.738400 -10.247400 12.180100 15 15 15 -0.594498 0.570656 -0.566501
30.737600 -10.247100 12.320400 15 15 15 -0.500586 0.833784 -0.232848
30.863001 -10.117600 14.941300 27 27 27 -0.999527 0.030145 -0.006025
30.990499 -10.811500 16.294600 58 58 58 -0.999976 -0.004269 0.005397
31.686199 -10.831800 18.327299 53 53 53 -0.988948 0.013820 0.147616
30.860100 -7.837460 -1.023080 140 140 140 -0.167822 0.965860 0.197359
30.641800 -8.069370 0.323000 36 36 36 -0.057530 0.979348 0.193823
30.760099 -8.101480 2.968640 27 27 27 0.023446 0.997205 0.070934
30.875200 -8.216560 4.300430 9 9 9 0.041041 0.998825 -0.025773
31.253700 -8.612960 7.251910 7 7 7 0.078977 0.995566 -0.051107
30.670799 -8.664350 14.953600 19 19 19 -0.942914 -0.164208 0.289741
30.999701 -6.803480 -1.233420 2 2 2 -0.318346 0.666953 0.673669
34.045101 -8.833160 6.629840 66 66 66 0.010675 0.996849 -0.078595
33.036400 -8.883120 9.377930 68 68 68 -0.000112 0.992404 0.123019
33.064201 -8.890960 10.317300 86 86 86 -0.148056 0.986509 0.069855
33.076599 -8.939740 12.432400 62 62 62 -0.302777 0.953047 0.005171
33.039700 -9.019390 14.536400 40 40 40 -0.200314 0.979672 0.010784
32.708302 -9.018190 16.379000 12 12 12 0.000988 0.999570 0.029319
32.679100 -9.678060 18.819099 12 12 12 -0.663556 0.655878 0.359885
32.645199 -8.688060 5.762020 9 9 9 0.037501 0.998925 0.027266
32.652901 -8.690310 6.332920 104 104 104 0.024452 0.998843 -0.041415
33.015701 -8.697950 9.312140 8 8 8 -0.001248 0.998976 0.045234
33.028801 -8.701970 10.525600 42 42 42 -0.329718 0.943172 0.041384
33.006699 -8.742120 12.975100 35 35 35 -0.362400 0.931891 0.015685
32.796600 -8.732520 14.951600 14 14 14 -0.235998 0.965692 0.108367
32.914902 -3.276130 2.228450 9 9 9 -0.748886 0.376782 0.545164
34.196301 -3.620910 3.672920 1 1 1 -0.151679 0.271490 0.950414
34.058201 -3.606530 4.442390 9 9 9 -0.127414 0.124650 0.983986
32.807098 11.679800 -0.852919 255 255 255 -0.060326 -0.595212 0.801301
34.872601 -9.191110 17.736000 10 10 10 0.009535 0.986560 0.163118
36.079498 -9.509220 18.406700 9 9 9 -0.001385 0.954040 0.299677
34.713699 -8.680170 5.737300 8 8 8 -0.010287 0.992226 0.124022
34.718300 -8.820000 6.287200 79 79 79 0.001714 0.999859 -0.016676
36.226101 -8.289070 8.436880 5 5 5 0.062747 0.943888 -0.324250
35.785900 -6.684610 4.596560 26 26 26 -0.118628 0.608221 0.784854
35.230499 -3.058160 0.985012 8 8 8 -0.521574 0.542104 0.658850
35.071201 -3.535070 2.652950 1 1 1 -0.165022 0.454434 0.875361
35.094799 -2.647490 1.545990 4 4 4 -0.473244 0.478012 0.739963
34.810299 5.969570 0.655202 20 20 20 -0.156931 0.238393 0.958406
38.594501 -16.848499 61.085602 28 28 28 -0.503643 0.833226 0.228209
38.594799 -16.599501 30.372499 15 15 15 0.394644 0.918679 -0.016891
37.972301 -16.397900 44.281700 16 16 16 -0.087407 0.088847 -0.992203
37.827801 -16.335600 44.335999 26 26 26 -0.113623 0.071976 -0.990913
37.825600 -16.392900 47.156300 22 22 22 -0.390391 0.920637 0.004768
37.872700 -16.415001 49.931301 21 21 21 -0.310972 0.949108 0.049898
37.877300 -16.474800 52.771000 18 18 18 -0.346210 0.938075 -0.012374
37.882401 -16.422501 55.530399 22 22 22 -0.298133 0.954463 -0.010829
38.062199 -16.558399 58.271099 14 14 14 -0.389258 0.921049 0.012130
37.866501 -16.529699 58.355099 17 17 17 -0.353845 0.934554 0.037447
37.881401 -16.312401 61.140499 12 12 12 -0.188443 0.981639 -0.029570
36.634998 -9.018250 16.307899 13 13 13 -0.002408 0.999716 0.023721
36.875702 -8.779360 6.218360 41 41 41 0.010072 0.989770 -0.142313
36.681301 -8.782090 6.296980 45 45 45 0.021788 0.987330 -0.157175
37.123100 -8.445110 8.677270 40 40 40 0.000085 0.990271 -0.139149
37.167400 -8.456710 12.134200 36 36 36 -0.048491 0.998822 0.001577
37.147499 -8.501480 12.306700 24 24 24 -0.075847 0.995512 0.056592
37.624901 -8.512090 14.771200 64 64 64 0.012217 0.971643 0.236136
37.096699 -6.736870 4.521280 20 20 20 -0.087075 0.653853 0.751595
37.013000 12.035500 -1.228570 12 12 12 -0.876270 0.274017 0.396316
37.069599 13.513600 -0.939078 14 14 14 -0.554351 0.120411 0.823527
38.709099 -16.840799 61.024300 39 39 39 -0.512191 0.829072 0.224278
38.643101 -16.620300 30.330099 15 15 15 0.398053 0.917188 -0.017905
38.809299 -16.758600 44.133400 28 28 28 -0.067352 0.141852 -0.987594
38.867699 -15.750900 44.295601 14 14 14 -0.060692 0.148282 -0.987081
38.712399 -15.689800 47.105400 15 15 15 -0.078338 0.996716 0.020497
38.673100 -15.789300 49.876301 13 13 13 -0.101806 0.994685 0.015419
38.668800 -16.703300 52.650902 38 38 38 -0.387446 0.912016 0.134582
38.656601 -15.841700 55.481300 14 14 14 -0.066038 0.997815 -0.002114
39.284801 -15.928100 58.282700 15 15 15 -0.139236 0.987983 0.067098
38.702900 -15.918500 58.299099 14 14 14 -0.088830 0.995985 0.011078
38.742699 -16.798000 61.003201 35 35 35 -0.483425 0.852863 0.197294
38.900600 -9.006680 16.272499 8 8 8 -0.006673 0.999724 0.022532
38.689301 -9.008920 16.318501 8 8 8 -0.006836 0.999707 0.023212
39.791302 -6.864560 4.600450 24 24 24 0.058013 0.973504 -0.221187
38.817501 -8.778020 6.313150 53 53 53 -0.003126 0.986784 -0.162011
39.109600 -6.746960 4.573400 21 21 21 -0.172008 -0.656899 -0.734096
39.681999 14.521900 0.625893 255 255 255 -0.533872 0.277947 0.798578
39.126801 17.584499 2.699170 2 2 2 -0.894173 -0.078429 0.440798
38.706402 20.346901 2.205830 4 4 4 -0.926854 -0.038541 0.373438
38.735401 20.361799 2.921970 5 5 5 -0.909207 -0.100573 0.404015
38.787300 20.327000 4.712070 4 4 4 -0.984971 0.003995 0.172676
41.967300 -16.629499 32.930901 10 10 10 0.140447 0.990038 -0.009946
41.804501 -16.749701 35.870300 32 32 32 0.108650 0.993622 -0.030180
41.870998 -16.716499 38.642502 13 13 13 -0.007575 0.999023 -0.043545
40.848099 -16.790001 44.135799 24 24 24 0.007454 0.107609 -0.994165
41.251499 -15.698300 44.323002 13 13 13 0.001913 0.224948 -0.974369
40.786098 -15.756400 47.100201 18 18 18 -0.073861 0.997106 0.018025
40.686501 -15.838500 49.910801 15 15 15 -0.101536 0.994610 0.020997
40.689400 -15.900900 52.703602 15 15 15 -0.086685 0.996227 0.004202
40.696701 -15.905500 55.496399 16 16 16 -0.083649 0.996425 0.011843
41.085999 -15.820000 58.282501 12 12 12 -0.057597 0.998314 0.007181
40.686199 -15.903100 58.284000 19 19 19 -0.001833 0.009362 -0.999955
40.767399 -15.936400 61.078999 13 13 13 -0.116046 0.992506 0.038280
42.297100 -10.857500 3.675900 114 114 114 -0.951631 -0.142332 0.272286
41.010300 -9.923160 -0.252515 112 112 112 -0.984726 0.071662 0.158680
41.035900 -10.095200 3.457060 133 133 133 -0.979806 0.186676 0.071637
41.221401 -9.000000 16.250401 7 7 7 -0.001875 0.999845 0.017529
40.716099 -8.995870 16.331200 8 8 8 -0.000648 0.999582 0.028910
41.019299 -8.786050 -0.941734 120 120 120 -0.977619 0.185786 0.098711
41.115398 -8.053140 0.986585 19 19 19 -0.956296 -0.096413 0.276048
41.705601 -7.626750 2.575510 100 100 100 -0.998142 0.014819 0.059097
41.125999 -7.362240 4.507630 33 33 33 0.071619 0.993717 0.086009
41.730400 -6.820900 2.212880 189 189 189 -0.971302 0.232681 0.049313
41.723202 -6.819890 2.319040 255 255 255 -0.974833 0.216463 0.053323
41.111000 -6.825840 4.526650 33 33 33 0.149609 0.948066 -0.280692
42.871799 -16.871099 44.134201 22 22 22 0.002136 0.103290 -0.994649
42.658298 -16.787201 44.132900 23 23 23 0.000053 0.120746 -0.992683
42.694302 -15.696100 44.303600 15 15 15 -0.003497 0.210175 -0.977657
42.786701 -15.670200 47.107300 15 15 15 0.028717 0.997956 -0.057092
42.703098 -15.763600 49.923199 14 14 14 -0.007403 0.999608 0.026995
42.832199 -15.873700 52.727001 15 15 15 -0.010933 0.999923 0.005864
42.839100 -15.877800 55.492298 14 14 14 -0.000266 1.000000 0.000626
43.108299 -15.918000 58.271301 16 16 16 -0.002032 0.999998 0.000472
43.056801 -15.837900 58.287601 16 16 16 -0.011864 0.999921 -0.004212
42.852699 -15.886100 61.085098 14 14 14 -0.005038 0.999847 0.016753
42.744099 -8.994850 16.355700 7 7 7 -0.007203 0.999588 0.027789
43.119301 -7.159240 4.468750 29 29 29 0.078837 0.970027 -0.229854
42.713100 -8.592590 7.384940 5 5 5 -0.069020 0.931128 0.358101
43.127499 -6.771590 4.538090 30 30 30 -0.044941 0.927730 -0.370537
42.748901 -4.145010 2.382990 15 15 15 -0.272925 0.381714 0.883067
43.723000 8.064220 -1.045610 24 24 24 -0.138562 -0.263694 0.954602
45.477402 -16.846500 44.079102 5 5 5 0.020582 0.189389 -0.981686
45.815498 -16.841499 44.312599 6 6 6 0.073607 0.017802 -0.997128
45.133499 -16.655300 44.140999 19 19 19 0.030913 0.150829 -0.988076
44.845901 -15.783600 44.294300 15 15 15 0.034682 0.157803 -0.986861
44.846001 -15.722600 47.120499 13 13 13 0.044318 0.997982 -0.045478
44.944801 -15.758800 49.908100 12 12 12 -0.004312 0.999805 0.019247
44.993900 -15.840900 52.726200 13 13 13 0.003300 0.999947 0.009711
44.665798 -15.854900 55.457600 11 11 11 -0.000472 0.999999 0.001026
44.657001 -15.917200 58.258999 14 14 14 0.029324 0.999558 -0.004974
44.634899 -15.974200 61.063202 12 12 12 0.025427 0.998915 0.039015
44.677502 -8.991760 16.890200 4 4 4 -0.015699 0.991642 0.128060
45.255798 -9.641900 18.762300 11 11 11 0.008011 0.946842 0.321600
45.126801 -7.143760 4.472520 24 24 24 -0.013285 0.829086 0.558963
44.676300 -8.579280 7.669880 5 5 5 -0.155697 0.946464 0.282781
45.114101 -8.428070 8.630040 14 14 14 -0.365173 0.891717 0.267374
45.622101 -8.464140 10.408600 36 36 36 -0.106531 0.992067 0.066746
45.613300 -8.463430 12.321900 39 39 39 -0.228478 0.972735 0.039805
45.626598 -8.467060 14.920400 18 18 18 -0.045256 0.973864 0.222579
45.494701 -5.394250 0.931955 44 44 44 -0.235479 -0.749816 -0.618325
45.448799 -5.216430 2.327830 25 25 25 -0.522705 -0.534504 -0.664143
46.457500 -6.579080 4.582740 26 26 26 -0.195295 -0.961503 0.193319
45.474800 -4.756730 5.975990 16 16 16 -0.155259 -0.161081 0.974653
45.456200 7.854410 -0.723900 33 33 33 -0.178445 -0.167837 0.969530
45.472698 7.797980 1.376480 66 66 66 -0.795082 0.524336 -0.304822
46.066399 13.644000 -0.121507 8 8 8 -0.300642 -0.435087 0.848713
47.723801 -17.587601 3.038370 255 255 255 -0.263569 -0.119825 -0.957169
47.090500 -8.985590 16.814600 6 6 6 -0.005708 0.969188 0.246257
47.321301 -8.102320 0.551237 255 255 255 -0.323533 -0.870771 0.370249
46.758301 -7.584100 3.902040 9 9 9 0.046028 0.990663 -0.128326
47.784801 -7.319110 4.425850 23 23 23 0.043391 0.964199 -0.261604
47.093102 -6.729460 4.481890 23 23 23 -0.181049 -0.916074 0.357811
46.824402 8.090540 0.147017 5 5 5 -0.153468 -0.111399 0.981854
46.793301 8.085140 0.327420 4 4 4 -0.170675 -0.077343 0.982287
47.499199 11.697200 0.730727 5 5 5 -0.048869 -0.192176 0.980143
48.311401 15.906000 2.178210 7 7 7 -0.524958 -0.843725 0.112017
48.310101 15.905600 2.306210 7 7 7 -0.496149 -0.862844 0.096628
48.369598 15.658500 6.099940 7 7 7 -0.999830 -0.008213 0.016487
48.370998 15.658700 6.292970 7 7 7 -0.999778 -0.006484 0.020029
48.483700 15.625600 8.673770 5 5 5 -0.353433 -0.934101 0.050411
48.444199 15.680900 10.308600 9 9 9 -0.464202 -0.876294 0.128939
48.515301 15.634200 12.754800 8 8 8 -0.494929 -0.866869 -0.059860
48.572601 15.651900 14.348500 5 5 5 -0.754436 -0.650891 0.084665
48.257198 18.904200 2.242390 7 7 7 -0.996101 -0.021668 0.085522
48.253899 18.902901 2.309110 6 6 6 -0.995727 -0.024149 0.089129
48.382900 17.635000 6.109690 9 9 9 -0.999905 -0.013438 -0.003119
48.378899 17.356199 6.292900 7 7 7 -0.999590 -0.015080 0.024350
48.383499 18.951300 8.318200 7 7 7 -0.999949 0.007408 0.006826
48.484299 17.256701 10.445900 8 8 8 -0.310794 0.083844 -0.946772
48.467602 18.845900 12.505400 6 6 6 -0.998779 -0.036943 -0.032809
48.533401 17.408300 14.824400 5 5 5 -0.977555 -0.201782 0.060583
48.223900 19.174101 2.117960 43 43 43 -0.995177 -0.042035 0.088636
48.233002 19.177700 2.316010 6 6 6 -0.995205 -0.054467 0.081239
48.308800 19.348400 4.321290 6 6 6 -0.854912 -0.518278 0.022669
48.382198 19.306999 6.324750 7 7 7 -0.998039 -0.045517 -0.042975
48.393002 19.167200 8.957210 5 5 5 0.249844 -0.963706 -0.094066
48.468498 19.196400 10.525200 7 7 7 -0.925407 0.021396 -0.378371
48.302101 22.148500 4.518410 8 8 8 -0.968277 -0.020437 0.249042
49.801800 -17.874599 38.059898 42 42 42 -0.077938 0.996864 0.013689
49.808899 -17.877399 38.368801 32 32 32 -0.077302 0.996926 0.012748
49.802700 -17.947001 41.000999 42 42 42 -0.092338 0.995594 0.016301
48.865200 -12.085300 -0.116241 11 11 11 -0.655749 0.347472 -0.670266
48.691399 -8.972510 16.518101 6 6 6 0.016995 0.973593 0.227659
49.662300 -8.308940 0.595533 10 10 10 -0.049753 0.947410 -0.316132
49.111500 -7.585300 4.376510 23 23 23 -0.037518 0.976411 -0.212637
49.113701 -6.640290 4.513850 25 25 25 0.054953 0.844141 -0.533297
48.827900 11.892900 0.528074 6 6 6 -0.216778 -0.290966 0.931851
49.423801 14.638100 1.033990 7 7 7 -0.877918 -0.471904 0.081038
49.446800 14.644000 3.628900 9 9 9 -0.991447 -0.130050 -0.010969
49.436798 14.640100 5.782330 9 9 9 -0.982548 -0.185359 -0.015536
49.441200 14.641300 6.308240 8 8 8 -0.966836 -0.253352 0.032266
49.569698 14.611000 8.789560 4 4 4 -0.958612 -0.284046 -0.019502
49.471298 14.648800 10.367800 10 10 10 -0.963346 -0.268077 0.009963
49.518600 14.864700 12.378000 6 6 6 -0.771886 -0.633779 -0.050158
49.536301 14.732900 15.468800 7 7 7 -0.863183 -0.504732 -0.012674
49.534302 14.865800 20.019501 8 8 8 -0.999177 0.029670 0.027653
49.561100 15.145500 21.496401 6 6 6 -0.997844 0.055623 0.034848
49.540401 14.662700 23.804600 6 6 6 -0.943916 -0.204218 -0.259456
49.564602 15.076900 24.785400 6 6 6 -0.868463 -0.495246 0.022452
49.557400 14.800800 26.927401 7 7 7 -0.905455 -0.424296 0.011098
49.428299 15.386300 0.539086 20 20 20 -0.779613 -0.610849 -0.138083
48.763802 15.718200 2.724850 6 6 6 -0.593698 -0.803361 0.046192
48.667301 15.686500 4.333360 6 6 6 -0.485768 -0.873472 -0.032802
49.445400 15.184400 6.327910 7 7 7 -0.634133 -0.770234 0.067940
48.859200 15.609400 9.030830 3 3 3 -0.586657 -0.806117 0.077517
49.461498 15.255700 10.320100 8 8 8 -0.808726 -0.587511 0.028173
49.515099 15.271400 12.307500 8 8 8 -0.562357 -0.826861 -0.007414
49.517502 15.340000 14.585900 5 5 5 -0.646056 -0.752969 0.125097
49.315399 16.160000 21.158600 6 6 6 -0.964405 0.204008 0.168237
48.761002 16.114300 24.128599 7 7 7 -0.995585 0.090807 -0.023773
48.754101 15.501300 24.915199 7 7 7 -0.995849 0.090647 0.008179
48.767502 15.504600 26.530100 5 5 5 -0.993781 0.077547 0.079915
48.878899 15.812200 29.058800 4 4 4 -0.999561 0.029270 0.004635
49.765800 16.162901 38.145500 8 8 8 -0.994672 0.011880 -0.102408
49.729698 16.082001 38.328899 15 15 15 -0.992768 0.033693 -0.115227
49.746300 16.154301 42.087898 10 10 10 -0.999968 0.003226 0.007279
49.779999 16.164700 42.663101 10 10 10 -0.999847 -0.012404 0.012373
50.073101 17.076799 76.387100 9 9 9 -0.985043 0.172079 0.008934
48.703400 18.871099 2.833830 5 5 5 -0.977443 0.084969 -0.193355
48.649300 18.849501 4.409970 4 4 4 -0.521096 -0.853309 0.017955
49.783798 17.296400 9.970250 18 18 18 -0.499010 0.118362 -0.858475
49.769100 17.642900 10.323000 22 22 22 -0.329727 0.137058 -0.934074
49.507900 17.195601 20.493999 5 5 5 -0.990956 0.033279 0.129992
48.738300 17.201401 23.662500 8 8 8 -0.992755 -0.051634 -0.108493
48.749802 17.274500 24.367599 6 6 6 -0.991868 -0.011891 0.126712
48.880798 17.389900 26.360600 10 10 10 -0.999995 0.002787 -0.001625
48.871101 17.590401 28.325701 9 9 9 -0.999976 0.006892 0.000476
49.681198 18.023800 31.511999 5 5 5 -0.946636 0.228893 0.226910
49.761398 17.908100 33.213600 11 11 11 -0.944771 0.265277 0.192447
49.565701 17.765800 37.896301 1 1 1 -0.987864 -0.132550 -0.080968
49.711899 17.395500 38.868500 15 15 15 -0.998340 -0.025412 -0.051678
49.745201 17.617001 41.593498 9 9 9 -0.999937 -0.004682 0.010208
49.745499 17.616699 42.351002 11 11 11 -0.999948 -0.007633 0.006787
50.096001 17.296600 76.382896 7 7 7 -0.996005 0.088870 0.008691
49.805599 19.873600 9.959760 13 13 13 -0.564952 0.562971 0.603235
49.777500 19.862301 10.299300 28 28 28 -0.690643 0.625036 0.363789
49.697201 19.605200 21.127300 17 17 17 -0.999675 0.020318 -0.015392
48.728401 19.221201 24.219000 10 10 10 -0.984852 -0.070934 -0.158223
48.722599 19.218901 24.296101 11 11 11 -0.997803 -0.055465 -0.036225
48.897400 19.214600 26.424299 8 8 8 -0.999889 0.014097 0.004719
49.702801 19.239901 38.476299 16 16 16 -0.904448 -0.089982 -0.416987
49.147701 22.016500 3.330890 5 5 5 -0.970333 0.227336 -0.082297
48.934200 22.735300 4.726430 7 7 7 -0.240617 0.189629 0.951916
51.256001 -17.962000 41.344601 29 29 29 -0.153181 0.987739 0.030125
51.064899 -8.543880 1.326600 27 27 27 0.089795 0.915556 -0.392039
51.116798 -7.304190 4.408670 23 23 23 0.024115 0.942098 -0.334469
51.112900 -6.780500 4.469130 23 23 23 -0.031150 0.871312 -0.489739
51.234798 11.664100 0.613222 27 27 27 -0.039480 -0.279233 0.959412
52.602001 14.647100 1.649690 9 9 9 0.103334 -0.979328 0.173892
52.587601 14.858600 3.045760 9 9 9 -0.701712 0.710955 -0.046300
52.584801 14.857400 4.285300 11 11 11 -0.998082 -0.061846 0.002611
52.591999 14.858400 7.130620 7 7 7 -0.075960 -0.997086 -0.007011
52.620899 14.866000 8.325760 8 8 8 0.081051 -0.964007 0.253223
52.545700 14.699900 10.316900 4 4 4 -0.991809 -0.126165 0.019916
52.633202 14.723100 13.279100 9 9 9 -0.013794 -0.997300 -0.072130
52.571999 15.209900 1.872020 10 10 10 -0.035610 -0.994307 -0.100425
52.561699 15.206900 2.283030 10 10 10 -0.063999 -0.994453 -0.083474
52.566399 15.207500 4.561360 10 10 10 -0.992122 -0.125111 0.006355
52.591301 15.213300 8.184720 12 12 12 -0.998687 0.051083 0.003776
52.594700 15.214300 8.325950 11 11 11 -0.979987 0.177308 -0.090482
52.631599 15.295300 12.379800 10 10 10 0.076761 -0.995864 0.048606
52.004398 18.881800 1.064620 57 57 57 0.073961 -0.959363 0.272310
51.098000 18.986601 5.966130 2 2 2 -0.292515 0.121175 -0.948552
51.579700 17.269600 9.601630 5 5 5 -0.288258 0.012872 -0.957466
51.497101 18.106001 17.662701 16 16 16 -0.884675 -0.306648 -0.351166
51.494400 17.887100 18.371300 18 18 18 -0.744523 -0.239807 -0.623040
50.873501 18.306499 36.958099 15 15 15 -0.861186 0.238035 -0.449108
50.779202 17.756100 60.049702 8 8 8 -0.967045 0.250982 0.042792
52.592400 19.171301 1.550420 53 53 53 -0.730640 0.677909 0.081269
52.612499 19.398701 5.318570 127 127 127 -0.155331 0.006871 -0.987839
50.869900 21.267000 6.053820 1 1 1 -0.187183 -0.090866 -0.978113
52.591202 24.595900 5.414730 116 116 116 -0.923362 -0.013185 -0.383704
52.587200 25.324200 5.356610 89 89 89 -0.545848 -0.025464 -0.837497
53.317402 -17.632099 33.448502 32 32 32 -0.089729 0.995885 -0.012752
53.320702 -17.633499 34.316399 33 33 33 -0.087135 0.996103 -0.013666
53.337200 -17.715300 36.632000 32 32 32 -0.044865 0.998937 0.010629
53.351501 -17.646900 39.167702 31 31 31 -0.079769 0.996731 0.012806
53.358200 -17.724501 40.375801 30 30 30 -0.071664 0.997411 0.005974
53.374401 -17.656401 42.304798 26 26 26 -0.104362 0.994532 0.003949
53.369301 -17.655899 44.325901 24 24 24 -0.999852 -0.016732 0.003941
53.383701 -17.811600 46.295101 24 24 24 -0.999968 -0.006388 0.004890
53.396702 -17.892900 49.646099 23 23 23 -0.999874 0.014978 0.005223
53.417000 -17.900101 50.297199 23 23 23 -0.999222 -0.039057 0.005513
53.424500 -17.904699 53.576302 21 21 21 0.257644 0.965819 0.028522
53.441601 -17.912001 56.352100 17 17 17 0.240982 0.970296 0.021298
53.127102 -7.386740 4.391290 23 23 23 -0.002753 0.955873 -0.293767
53.254601 11.911700 0.756862 1 1 1 -0.089553 0.418894 -0.903608
53.267700 14.905400 0.890567 7 7 7 -0.038481 -0.998615 0.035885
53.268600 14.831700 4.666820 7 7 7 -0.018835 -0.995833 -0.089235
52.650398 14.800900 11.606200 8 8 8 -0.998232 -0.058537 0.010294
52.677399 14.664200 12.287600 7 7 7 0.034924 -0.999178 0.020587
52.660999 14.658200 15.721900 8 8 8 -0.115992 -0.991746 -0.054644
52.659901 14.873500 16.955000 8 8 8 -0.789752 -0.594116 0.152705
52.671299 14.803700 18.333401 7 7 7 -0.868857 -0.446334 -0.214179
52.683201 14.733700 20.595400 8 8 8 -0.306371 -0.951893 -0.006043
52.688000 15.022100 22.295601 7 7 7 -0.292350 -0.903342 -0.313854
53.266602 15.267200 0.879950 10 10 10 -0.099374 -0.982511 -0.157469
52.650501 15.228900 12.108700 10 10 10 -0.006724 -0.999852 0.015840
52.636700 15.296800 12.306900 10 10 10 0.080844 -0.996139 0.034240
52.698399 15.238100 22.111401 8 8 8 -0.286000 -0.952841 0.101481
52.728100 19.144600 0.867912 55 55 55 -0.994329 0.094774 0.048239
52.736698 19.070400 2.292200 135 135 135 -0.641118 0.762704 0.085144
52.823700 18.878300 4.750400 13 13 13 -0.005211 -0.991077 0.133186
52.793701 17.749100 8.734960 24 24 24 -0.995653 0.064288 -0.067401
53.508801 20.420700 2.966620 1 1 1 -0.931638 0.351095 -0.093721
53.952202 23.599600 3.176410 4 4 4 -0.866552 -0.024806 -0.498470
55.776299 -7.183580 4.396060 23 23 23 -0.220447 0.589498 -0.777107
55.123901 -6.677000 4.519570 19 19 19 -0.118970 0.624908 -0.771580
55.740002 14.619700 1.302630 7 7 7 -0.113088 -0.990432 0.079091
55.769501 14.627100 2.320380 4 4 4 -0.257252 -0.963354 0.075965
55.688801 14.756200 4.312310 9 9 9 -0.094406 -0.995286 -0.022196
55.807098 14.634800 7.946470 6 6 6 0.001631 -0.999998 0.000635
55.816002 14.636900 8.613630 6 6 6 0.003579 -0.999918 -0.012336
55.812302 14.786200 11.570200 7 7 7 0.002745 -0.999941 -0.010530
55.790699 14.705100 12.329100 9 9 9 -0.012567 -0.998889 -0.045427
55.674900 15.203700 1.743660 8 8 8 0.098707 -0.976786 -0.190119
55.732201 15.217000 8.034920 10 10 10 0.071164 -0.997453 0.004809
55.740299 15.219100 8.332280 10 10 10 0.057624 -0.997879 0.030278
54.798698 18.887600 5.359860 55 55 55 -0.096630 -0.962102 0.254995
57.709000 -8.838100 2.107170 27 27 27 -0.997034 0.052282 -0.056474
56.970798 -9.239890 3.078610 18 18 18 -0.806786 0.534227 -0.252385
57.700901 -8.688460 1.997790 25 25 25 -0.997377 0.061903 -0.037509
57.686798 -8.760740 2.306020 36 36 36 -0.997384 0.060729 -0.039195
57.105801 -7.354790 4.355300 22 22 22 -0.911686 -0.193943 -0.362236
57.101700 -6.771540 4.425870 22 22 22 -0.815760 0.208325 -0.539571
58.815300 14.794900 2.204210 7 7 7 0.001449 -0.999584 -0.028812
58.840500 14.801200 2.357830 6 6 6 0.002426 -0.999105 -0.042235
58.883900 14.810000 7.966860 9 9 9 -0.010116 -0.999525 0.029126
58.879101 14.808400 8.741470 9 9 9 -0.013406 -0.999892 -0.005939
58.930000 14.899000 11.877200 8 8 8 0.010986 -0.999863 0.012359
58.924198 14.818500 12.284900 7 7 7 -0.012701 -0.999919 -0.000372
58.999100 14.835400 16.905100 6 6 6 0.016517 -0.999743 -0.015518
58.953800 14.823400 18.299000 9 9 9 -0.000686 -0.999881 -0.015442
61.996201 14.852100 1.531250 6 6 6 -0.021151 -0.999464 0.024988
62.005501 14.691400 2.291900 6 6 6 -0.028280 -0.997555 0.063906
62.014599 14.855300 4.902210 7 7 7 -0.003451 -0.999980 0.005306
62.029598 14.776600 7.670930 9 9 9 -0.021791 -0.999465 -0.024375
62.021801 14.774600 8.318820 7 7 7 -0.044700 -0.998788 -0.020579
64.585098 14.446100 0.832647 1 1 1 -0.004340 -0.988590 0.150568
62.787899 14.953400 17.715200 9 9 9 0.002213 -0.999939 0.010835
64.678299 14.467200 0.752640 2 2 2 -0.006646 -0.989903 0.141591
65.179703 14.838000 3.218370 8 8 8 -0.013120 -0.990175 0.139214
65.146797 14.830000 4.899880 9 9 9 -0.002384 -0.999877 0.015503
65.277603 14.855100 17.468901 9 9 9 -0.007620 -0.999970 0.001053
67.505898 -8.866100 0.048100 54 54 54 -0.486856 0.867039 0.105899
67.533401 -9.128690 0.457031 94 94 94 -0.611848 0.780227 0.129957
67.527100 -8.695050 -0.073809 85 85 85 -0.490225 0.861741 0.130695
67.528702 -8.782080 0.291977 94 94 94 -0.474503 0.872340 0.117769
67.598900 14.675900 1.670210 11 11 11 -0.006661 -0.994243 0.106946
68.293701 14.826400 2.566290 11 11 11 0.004809 -0.993489 0.113825
68.300003 14.827000 4.327200 10 10 10 0.001586 -0.997833 0.065771
68.343300 14.834600 9.652590 7 7 7 -0.006798 -0.999965 -0.004965
67.778702 14.709600 16.059999 5 5 5 -0.021480 -0.999755 -0.005405
70.047798 -8.130640 6.277470 45 45 45 -0.065027 0.997542 -0.026110
69.319801 -8.664720 6.987040 5 5 5 -0.158360 0.987188 -0.019524
70.021698 -8.663420 9.099950 54 54 54 -0.008789 0.984402 0.175715
70.750198 14.615900 2.466620 5 5 5 -0.048252 -0.995550 0.080942
73.818901 -12.263100 24.407600 6 6 6 -0.454339 0.751483 0.478381
75.973099 -17.592501 36.204399 55 55 55 -0.999990 -0.004036 0.002161
75.983299 -17.896500 36.449902 53 53 53 -0.999954 -0.009592 -0.000167
75.962700 -16.385599 33.511299 57 57 57 -0.999979 -0.005463 0.003337
75.961304 -16.587299 34.635101 54 54 54 -0.999948 0.008997 0.004719
75.963997 -16.588800 36.288101 57 57 57 -0.999997 0.002232 0.001401
75.910896 -12.909800 26.055201 64 64 64 -0.998983 0.016272 0.042040
75.907303 -13.102200 26.545799 59 59 59 -0.999388 0.022777 0.026562
75.932098 -14.588400 29.462601 67 67 67 -0.992950 0.003060 0.118493
75.930099 -14.490200 30.316999 40 40 40 -0.987915 0.100589 0.117920
75.952202 -14.691300 32.774300 56 56 56 -0.999974 -0.006983 -0.001676
75.953003 -14.594900 34.357101 51 51 51 -0.999945 -0.007932 0.006804
75.969803 -14.599100 36.361801 56 56 56 -0.999991 -0.000038 0.004184
75.888901 -11.337200 22.893200 56 56 56 -0.999736 0.022925 -0.001812
75.922798 -12.612600 25.212900 33 33 33 -0.999872 0.000243 -0.016018
75.911903 -12.710500 26.311300 64 64 64 -0.999084 0.023902 0.035504
75.924698 -12.814300 29.079800 62 62 62 -0.999966 -0.004504 0.006891
75.935402 -12.816800 30.308901 46 46 46 -0.980451 -0.045315 0.191475
75.942497 -12.718800 32.756100 59 59 59 -0.992272 -0.002530 -0.124057
75.949097 -12.821300 34.293701 63 63 63 -0.999942 -0.007621 0.007607
75.961502 -12.624500 36.330101 58 58 58 -0.999932 -0.009546 0.006660
75.440804 -8.948080 10.381000 42 42 42 -0.777525 0.614930 0.131590
75.442802 -8.948920 12.330500 67 67 67 -0.563522 0.821076 -0.090979
75.444298 -9.045090 14.327700 58 58 58 -0.390053 0.920401 0.026834
75.455704 -8.857210 16.457100 65 65 65 -0.178954 0.973122 0.144948
75.464996 -9.049270 18.727600 53 53 53 -0.249885 0.959942 0.126765
75.878899 -9.875810 21.732401 62 62 62 -0.796711 0.595338 0.104045
75.879402 -9.974100 22.379200 67 67 67 -0.737559 0.669499 0.088189
75.972900 -10.472900 25.190500 41 41 41 -0.997173 0.020513 -0.072292
75.894501 -10.172600 26.358900 62 62 62 -0.999830 -0.016559 -0.008130
75.982697 -10.475900 28.874100 51 51 51 -0.993943 0.002061 -0.109879
75.913002 -10.176800 30.297600 52 52 52 -0.995840 0.036256 -0.083592
75.938797 -10.374200 32.741100 58 58 58 -0.996433 -0.066181 -0.052351
75.930298 -10.471800 35.065498 59 59 59 -0.999947 -0.007437 0.007181
75.944603 -10.376700 36.328400 54 54 54 -0.999931 -0.010336 0.005574
74.711098 -8.480030 8.270070 10 10 10 -0.144454 0.973042 0.179786
74.703201 -8.479150 8.364800 9 9 9 -0.123052 0.976184 0.178668
