ply
format ascii 1.0
element vertex 722
property float x
property float y
property float z
property uchar red
property uchar green
property uchar blue
property float nx
property float ny
property float nz
end_header
3.691140 -7.821690 2.898450 89 89 89 -0.490882 0.729445 0.476388
3.689780 -7.794520 3.900100 75 75 75 -0.041717 0.752593 -0.657164
3.990820 -7.938910 7.717590 50 50 50 0.054246 0.970021 -0.236891
3.684810 -7.814860 7.889600 51 51 51 0.093833 0.904315 -0.416425
4.379070 -7.905550 10.152200 27 27 27 -0.419682 0.907502 -0.017535
4.422980 -7.939810 11.951800 3 3 3 -0.575894 0.808729 0.119595
3.686910 -7.930020 14.433300 72 72 72 -0.122877 0.199658 -0.972131
3.906850 -5.889750 -1.843800 42 42 42 0.050349 0.101950 0.993515
3.685410 -5.941870 4.196170 1 1 1 -0.021701 -0.041170 -0.998916
3.692040 -3.940650 -2.030160 38 38 38 0.005794 0.022565 0.999729
3.684320 -1.693230 -1.999510 25 25 25 0.027842 -0.114054 0.993084
3.901990 0.588739 -0.496179 3 3 3 -0.470821 0.173953 0.864909
3.729130 2.058160 -2.002130 25 25 25 -0.009572 0.060335 0.998132
3.717350 5.735620 -2.186970 23 23 23 -0.004893 0.066419 0.997780
3.726780 4.073680 -2.093780 21 21 21 0.076012 0.018383 0.996937
3.720360 6.068530 -2.207770 20 20 20 -0.006846 0.075991 0.997085
3.725190 8.302220 -2.288580 40 40 40 -0.008949 -0.021183 0.999736
3.720500 10.068900 -2.260850 36 36 36 -0.003466 -0.015260 0.999878
3.698010 12.120000 -2.242150 23 23 23 0.009340 0.009998 0.999906
3.830610 15.597900 -2.626970 0 0 0 0.018427 0.118870 0.992739
4.051510 16.317200 -2.696730 2 2 2 0.020931 0.114246 0.993232
3.728330 31.870199 -1.459080 18 18 18 0.111327 -0.993526 0.022624
3.710440 32.061298 -0.502428 68 68 68 0.030416 -0.937430 0.346843
3.700120 34.223499 -0.424459 97 97 97 -0.071229 -0.405697 0.911228
3.789460 35.047901 0.095777 132 132 132 -0.031449 -0.985680 0.165670
3.694470 35.857700 1.864910 34 34 34 0.045485 -0.533073 0.844846
3.761720 36.061901 1.978580 31 31 31 0.039564 -0.487896 0.872005
5.577210 41.767601 -5.966750 0 0 0 0.182406 -0.234044 0.954962
3.695730 42.725300 -5.903500 15 15 15 0.297742 -0.953792 0.040380
3.698060 42.743900 -4.103740 139 139 139 0.275082 -0.961376 -0.009311
7.675330 -25.325399 52.340900 23 23 23 -0.045232 0.023958 -0.998689
7.612400 -20.576000 1.139160 8 8 8 0.764840 0.595214 0.246453
7.318040 -18.758600 -1.446910 17 17 17 0.037561 0.079825 0.996101
6.850410 -17.958300 -0.087856 6 6 6 0.581761 0.273263 0.766082
7.544930 -19.617399 41.320499 23 23 23 0.467285 -0.755133 -0.459802
6.930740 -17.765600 -1.514930 4 4 4 0.009917 0.025132 0.999635
6.015870 -15.891400 -0.792453 17 17 17 0.321307 0.108468 0.940742
7.671890 -14.254000 5.106650 14 14 14 -0.024703 0.001298 -0.999694
6.308090 -14.127600 29.746000 7 7 7 0.014944 0.926530 0.375925
5.690200 -14.468000 30.419600 17 17 17 0.008479 0.932588 0.360843
7.410560 -12.458000 -1.696000 4 4 4 0.059227 0.038065 0.997519
5.809500 -13.384100 5.156150 19 19 19 -0.010421 -0.155105 -0.987843
6.626500 -13.801600 29.052601 13 13 13 -0.009782 0.911657 0.410835
5.817350 -11.416300 -1.669990 5 5 5 0.040021 0.023288 0.998927
7.060530 -10.476700 4.229910 4 4 4 -0.007260 -0.369008 -0.929398
6.328240 -10.093400 10.853100 0 0 0 0.016376 0.963898 0.265766
5.826620 -10.123300 11.979500 0 0 0 0.034571 0.999274 0.016003
6.051460 -10.455300 14.077600 1 1 1 0.011823 -0.474812 -0.880008
5.742460 -9.935110 -1.702930 8 8 8 0.041870 0.022815 0.998863
5.835870 -8.898840 3.599050 5 5 5 -0.102606 -0.096239 -0.990056
6.730230 -9.932620 4.008680 4 4 4 0.029207 -0.302895 -0.952576
5.689650 -8.309090 5.998150 18 18 18 -0.138358 0.985361 -0.099599
5.737410 -8.612040 9.207410 0 0 0 -0.933921 -0.217769 -0.283494
5.983580 -9.624160 10.316400 0 0 0 -0.200987 -0.642466 -0.739488
5.867570 -9.765530 13.035200 0 0 0 0.735377 0.585653 -0.340927
5.690440 -9.499540 14.076300 1 1 1 -0.558470 -0.493878 -0.666480
5.729920 -8.609230 17.499001 26 26 26 -0.011691 0.941479 0.336869
5.776350 -9.352800 19.344601 4 4 4 -0.024246 0.920808 0.389261
6.180480 -9.840680 20.721001 25 25 25 -0.030817 0.931254 0.363066
5.926840 -7.923700 -1.745410 5 5 5 0.025996 0.035580 0.999029
5.693810 -7.922340 3.378270 27 27 27 0.015197 0.703953 -0.710084
5.839630 -7.708950 3.863210 41 41 41 -0.043540 0.648248 -0.760183
5.687500 -7.938240 7.676400 45 45 45 -0.026263 0.996873 -0.074534
5.687850 -7.752500 7.893140 33 33 33 0.030983 0.998038 0.054405
5.686200 -7.876250 9.894530 13 13 13 -0.232197 0.969113 -0.083093
5.897320 -7.874860 11.857000 1 1 1 -0.053611 0.997033 0.055242
5.831000 -7.849290 13.873100 7 7 7 -0.132238 0.988546 -0.072732
5.930850 -5.811420 -1.893540 34 34 34 0.003623 0.077247 0.997005
5.736530 -5.929300 4.153070 1 1 1 -0.043645 0.081407 -0.995725
5.684810 -3.697180 -2.013000 22 22 22 -0.005082 -0.005272 0.999973
5.713290 -1.697140 -1.994330 13 13 13 0.002688 -0.021761 0.999760
5.730200 1.682900 -1.986930 88 88 88 0.032035 0.039744 0.998696
5.724760 2.310550 -2.001230 20 20 20 0.041398 -0.177724 0.983209
6.956080 3.404880 -0.140761 3 3 3 -0.143196 -0.946732 0.288432
5.780310 5.350860 -2.144210 19 19 19 -0.029200 0.102573 0.994297
5.686750 4.156490 -0.901411 3 3 3 -0.481834 0.604643 0.634226
5.710180 6.070410 -2.193750 21 21 21 -0.007078 0.068505 0.997626
5.701440 8.747140 -2.279780 28 28 28 0.004125 -0.011098 0.999930
5.700270 10.471900 -2.263380 28 28 28 0.002205 -0.009468 0.999953
5.927330 12.092500 -2.246980 18 18 18 -0.000796 0.004330 0.999990
5.824180 14.461500 -2.502160 0 0 0 -0.013451 0.124332 0.992150
5.693450 17.698799 -2.907270 2 2 2 -0.110393 0.166292 0.979878
5.972330 18.409300 -3.015810 2 2 2 -0.196316 0.157436 0.967819
7.682420 27.119499 -4.256230 89 89 89 -0.999205 -0.031646 0.024255
7.680040 27.240000 -4.101000 76 76 76 -0.999101 -0.031358 0.028537
7.638770 28.178499 -4.452680 72 72 72 -0.999031 -0.030335 0.031874
7.653640 28.092501 -4.097670 76 76 76 -0.999080 -0.031288 0.029317
7.681860 29.054600 -2.107380 66 66 66 -0.998968 -0.032164 0.032077
7.585530 30.067699 -4.705450 79 79 79 -0.999384 -0.030772 0.016889
7.594840 30.103701 -4.114990 79 79 79 -0.999319 -0.029907 0.021633
5.834100 31.962000 -1.500920 18 18 18 0.019318 -0.999352 -0.030356
7.501030 32.290501 -5.014280 73 73 73 -0.998891 -0.024736 0.040065
7.542770 32.098801 -4.124900 80 80 80 -0.999093 -0.024651 0.034719
5.692400 32.097900 -1.751300 30 30 30 0.085081 -0.940560 -0.328799
7.432900 35.190399 -5.436830 75 75 75 -0.999525 -0.022004 0.021576
7.489630 34.176800 -4.105900 70 70 70 -0.999208 -0.025267 0.030729
5.696480 34.113098 -0.465582 62 62 62 0.232211 -0.310336 0.921829
5.919500 34.896999 -0.142890 48 48 48 0.058912 -0.901375 0.429014
5.737560 36.019199 1.872010 26 26 26 0.095386 -0.667041 0.738890
5.752790 36.114799 1.923050 34 34 34 0.102225 -0.642786 0.759194
7.489830 39.912899 -6.051230 1 1 1 0.018042 -0.105175 0.994290
5.732350 41.717800 -5.976200 2 2 2 0.097269 -0.225464 0.969384
5.780740 43.290501 -6.017830 4 4 4 0.270962 -0.959106 0.081824
5.725640 43.279598 -2.756850 26 26 26 0.278029 -0.959512 -0.045141
9.658640 -27.245001 60.734001 12 12 12 -0.155385 -0.013348 -0.987764
7.787540 -25.352501 52.338600 21 21 21 -0.043690 0.018297 -0.998878
9.645560 -25.861601 60.700199 23 23 23 -0.113968 -0.006884 -0.993461
8.616320 -22.673401 -1.200700 14 14 14 0.063401 0.795220 0.602997
8.358610 -22.504400 0.180609 50 50 50 0.590480 0.798665 0.116046
8.367410 -22.529699 1.904520 12 12 12 0.820598 0.444921 -0.358698
8.433680 -22.453400 4.393270 43 43 43 0.329656 0.921365 -0.205946
9.151900 -21.294100 -1.327700 2 2 2 0.034506 0.079997 0.996198
7.857240 -21.237499 1.147260 7 7 7 0.856918 0.496008 -0.140242
7.880990 -21.220400 2.137700 9 9 9 0.849738 0.489134 -0.196705
7.887720 -21.079300 4.247540 37 37 37 0.713461 0.608348 -0.347687
7.911470 -19.338600 -1.399860 9 9 9 0.048385 0.032827 0.998289
9.651660 -19.928301 5.109660 13 13 13 0.008367 -0.018350 -0.999797
8.792510 -18.313101 38.666801 4 4 4 -0.671210 0.631401 0.388342
7.916900 -19.622200 41.314602 24 24 24 0.533609 -0.716924 -0.448644
8.200700 -16.094000 -1.596100 2 2 2 0.063943 0.065598 0.995795
8.112640 -17.021900 5.111810 12 12 12 -0.026753 -0.007445 -0.999614
8.497310 -17.585600 37.118999 0 0 0 -0.567949 0.789465 0.232762
7.930780 -15.515900 -1.589420 0 0 0 0.070231 0.058160 0.995834
7.927850 -14.865000 5.100210 14 14 14 -0.023144 -0.001217 -0.999731
9.590500 -14.893900 31.390800 40 40 40 -0.002052 0.932675 0.360713
7.743060 -12.510500 -1.709710 2 2 2 0.051175 0.033490 0.998128
7.752400 -13.939200 5.105060 18 18 18 -0.026277 0.001443 -0.999654
7.831140 -10.051500 10.795700 0 0 0 0.479123 0.833635 0.274760
7.813220 -10.511700 12.444500 0 0 0 0.237868 0.971258 -0.008730
7.869680 -10.451400 14.051700 1 1 1 0.081489 0.991480 0.101625
7.879070 -8.646340 -1.800990 2 2 2 0.020546 -0.010271 0.999736
7.694350 -8.256900 3.323750 12 12 12 -0.052304 0.339450 -0.939169
7.689630 -8.233190 5.946020 19 19 19 0.007073 0.971403 -0.237333
7.745680 -8.150320 8.400300 0 0 0 -0.374372 0.919256 0.121717
8.131920 -9.613790 10.302900 0 0 0 -0.521279 -0.122206 -0.844591
7.933460 -9.502010 13.008800 0 0 0 0.743734 0.006274 -0.668446
7.696500 -8.269360 15.638900 22 22 22 -0.038989 0.994465 0.097571
7.698500 -8.548890 17.455299 24 24 24 -0.014059 0.952744 0.303449
7.867060 -9.237660 19.204201 14 14 14 -0.032971 0.946265 0.321706
7.790170 -9.505310 20.039700 21 21 21 -0.027893 0.940019 0.339980
7.685880 -7.607390 -1.761060 9 9 9 0.000222 0.023548 0.999723
7.734470 -7.912400 3.324700 21 21 21 -0.055045 0.718758 -0.693078
7.692350 -7.655140 3.900770 51 51 51 -0.040015 0.843435 -0.535739
7.690190 -7.930230 7.623520 41 41 41 -0.127233 0.963188 -0.236812
7.698790 -7.703610 7.888100 4 4 4 0.007221 0.989394 -0.145078
7.689110 -7.753170 9.858460 22 22 22 -0.065125 0.997440 0.029523
7.711690 -7.817510 12.044100 1 1 1 0.000640 0.997469 -0.071099
7.862980 -7.833240 14.196400 0 0 0 -0.036900 0.991921 0.121376
7.738000 -5.800460 -1.893510 33 33 33 0.005090 0.066507 0.997773
9.556320 -5.931250 3.856290 17 17 17 -0.026812 -0.343846 -0.938643
7.871880 -5.811610 4.107050 0 0 0 0.060946 0.140500 -0.988203
7.687020 -3.698160 -2.011650 29 29 29 -0.001425 -0.005523 0.999984
7.715360 -1.937620 -1.981290 23 23 23 -0.006487 -0.003449 0.999973
7.696720 2.103210 -1.984860 12 12 12 -0.068791 -0.297554 0.952223
7.698500 6.101210 -2.179750 19 19 19 0.002869 0.084932 0.996383
7.723530 8.087850 -2.271160 26 26 26 -0.002352 -0.000066 0.999997
8.868280 10.092900 -2.238690 32 32 32 -0.045022 -0.009520 0.998941
8.182860 12.727200 -2.208010 42 42 42 -0.980539 0.181722 0.074301
8.182540 12.726700 -2.110430 117 117 117 -0.978278 0.189771 0.083419
8.128740 14.079500 -2.355230 72 72 72 -0.991235 -0.091098 0.095679
8.139600 14.058000 -2.099060 106 106 106 -0.995575 -0.025702 0.090392
8.052680 16.120001 -2.646900 41 41 41 -0.999007 -0.031397 0.031604
8.068010 16.099501 -2.112130 93 93 93 -0.998949 -0.031160 0.033628
7.930970 19.343100 -3.054780 40 40 40 -0.998440 -0.032533 0.045386
8.008890 18.088699 -2.099380 93 93 93 -0.998886 -0.027791 0.038145
9.020460 18.167200 0.593676 13 13 13 -0.886311 0.107558 0.450426
7.896120 20.115999 -3.154920 31 31 31 -0.998045 -0.027738 0.056009
7.933560 20.744499 -2.101140 82 82 82 -0.998539 -0.031759 0.043712
9.181070 20.115700 0.554051 6 6 6 -0.840795 0.031762 0.540421
7.847140 22.173700 -3.449780 70 70 70 -0.999195 -0.028397 0.028330
7.891270 22.120199 -2.114690 76 76 76 -0.998978 -0.026100 0.036900
7.769830 24.257500 -3.763610 69 69 69 -0.998998 -0.029353 0.033773
7.830980 24.136400 -2.110520 67 67 67 -0.999021 -0.031139 0.031427
7.708100 26.326500 -4.151930 67 67 67 -0.999324 -0.028149 0.023659
7.716180 26.109600 -4.104160 81 81 81 -0.999355 -0.027505 0.023078
7.775580 26.066299 -2.109320 75 75 75 -0.999101 -0.028389 0.031483
7.684800 28.064501 -3.047270 78 78 78 -0.999085 -0.029926 0.030549
7.713450 28.167801 -2.095850 79 79 79 -0.999039 -0.030145 0.031808
8.841260 31.353800 -1.005770 6 6 6 -0.272216 -0.105358 0.956451
7.696470 32.203201 -1.055570 19 19 19 0.024352 -0.919218 0.392996
9.380270 34.944099 -0.454098 8 8 8 -0.127422 -0.254063 0.958757
8.046590 39.821800 -6.124250 1 1 1 -0.034995 -0.130300 0.990857
7.727370 43.906101 -5.970080 92 92 92 0.273685 -0.961819 -0.000992
7.726840 43.898800 -4.098200 138 138 138 0.276146 -0.961103 -0.004950
8.268520 44.059601 -5.247900 131 131 131 0.278642 -0.960379 -0.005477
8.392750 44.087502 -3.631970 132 132 132 0.276020 -0.961129 -0.006649
8.716850 44.274101 -0.570589 5 5 5 0.285057 -0.957966 0.032300
11.483000 -30.102699 -0.105775 15 15 15 -0.905147 -0.296968 0.304169
10.855900 -28.142500 2.150200 16 16 16 0.121430 0.283629 0.951215
10.420100 -26.813700 2.141490 1 1 1 -0.380616 -0.210962 -0.900348
9.905350 -27.607201 60.699299 19 19 19 -0.144072 -0.014027 -0.989468
9.896050 -24.106100 -0.441677 1 1 1 -0.066212 0.505175 0.860474
10.109300 -24.712601 -0.108627 120 120 120 -0.550797 0.602949 0.577126
10.147400 -25.354099 2.102840 0 0 0 -0.611315 0.174086 -0.772003
9.701410 -24.759501 52.233898 39 39 39 -0.039920 0.152979 -0.987423
10.371100 -24.803400 54.948799 10 10 10 -0.123186 0.988829 0.083919
10.351200 -24.759501 57.756302 16 16 16 -0.219140 0.975480 0.020384
10.357000 -24.601700 57.923100 24 24 24 0.130001 0.991162 0.026417
9.846580 -25.901600 60.695599 20 20 20 -0.151139 -0.005795 -0.988496
9.851980 -23.914700 -0.153977 6 6 6 0.050282 0.536633 0.842316
9.855240 -23.922600 -0.122329 6 6 6 -0.048352 0.142482 -0.988616
9.743350 -23.904699 2.144390 33 33 33 0.238797 0.900700 -0.362927
9.929240 -23.107599 3.895770 49 49 49 0.342702 0.939348 -0.013438
9.705890 -21.176399 -1.353500 0 0 0 0.031248 0.069087 0.997121
9.747640 -20.319500 4.984860 24 24 24 -0.320897 0.114384 0.940182
10.172900 -19.954100 43.878799 25 25 25 -0.996576 0.026788 0.078216
10.377000 -20.740000 46.645100 12 12 12 -0.999524 -0.026694 0.015468
10.389900 -20.639799 49.487400 27 27 27 -0.999999 -0.001172 0.000981
10.430400 -20.658899 52.237000 17 17 17 -0.999908 0.002262 0.013353
10.402100 -20.542299 55.067001 17 17 17 -0.999020 0.039836 0.019305
10.529500 -20.602800 57.821602 19 19 19 -0.999641 0.002614 0.026665
10.460100 -20.403700 57.867500 14 14 14 -0.998830 0.038607 0.029131
10.661000 -20.606600 60.611900 21 21 21 -0.998859 -0.040965 0.024561
10.038000 -18.257500 -1.552450 1 1 1 0.017539 0.058113 0.998156
9.733350 -19.903700 5.005190 42 42 42 0.084850 -0.032554 -0.995862
9.922580 -18.090300 38.286800 21 21 21 0.792785 -0.242307 -0.559266
10.138200 -19.280500 41.080200 25 25 25 -0.997965 0.025318 0.058524
10.298000 -18.021601 43.854900 22 22 22 -0.126870 -0.014191 -0.991818
10.174000 -19.650499 43.873001 23 23 23 -0.999372 0.018322 0.030330
10.260000 -19.940800 46.693501 25 25 25 -0.999780 -0.010794 0.017972
10.349500 -19.934299 49.481098 22 22 22 -0.999762 0.012599 0.017836
10.412000 -19.692699 52.270302 23 23 23 -0.999884 -0.003074 0.014887
10.426000 -18.096600 55.037102 22 22 22 -0.999839 -0.013486 0.011815
10.529000 -19.918699 57.835201 24 24 24 -0.999453 -0.017829 0.027850
10.429700 -17.952700 60.662201 12 12 12 -0.217343 -0.017208 -0.975944
9.711570 -17.770000 -1.547300 1 1 1 0.027669 0.041638 0.998750
9.909350 -16.381399 5.056810 11 11 11 -0.056216 -0.003632 -0.998412
9.914420 -16.657600 35.457600 28 28 28 -0.760014 0.640466 -0.110368
9.933320 -16.088301 38.255600 27 27 27 0.067766 0.051539 -0.996369
10.069600 -17.931499 41.082100 25 25 25 -0.144453 -0.003453 -0.989506
10.161200 -17.678400 43.851898 25 25 25 -0.171398 -0.015787 -0.985075
10.113800 -17.907000 43.864300 24 24 24 -0.131135 -0.015585 -0.991242
10.181400 -17.362101 46.667099 25 25 25 -0.058267 -0.016618 -0.998163
10.319100 -17.701099 49.453701 23 23 23 -0.999605 -0.023987 0.014677
10.375300 -17.903299 52.252300 26 26 26 -0.999825 -0.012757 0.013681
10.427100 -17.839300 55.034500 22 22 22 -0.999878 -0.009633 0.012270
10.425000 -16.853800 57.842098 23 23 23 -0.991323 0.130606 0.014864
10.418000 -17.880699 60.649399 9 9 9 -0.145257 -0.013307 -0.989304
11.024600 -15.875100 -1.637510 1 1 1 0.037176 0.023034 0.999043
9.724800 -15.369900 5.054110 11 11 11 -0.028890 -0.005434 -0.999568
9.690310 -14.883200 31.388201 40 40 40 0.000336 0.931700 0.363229
9.721560 -15.479000 32.691700 40 40 40 -0.059994 0.938717 0.339429
9.932360 -15.860800 35.455700 27 27 27 -0.080756 0.201766 -0.976099
10.651200 -15.663300 36.188999 22 22 22 -0.139225 0.965749 -0.218963
9.921110 -15.934400 38.249401 28 28 28 0.127784 0.087248 -0.987957
10.026300 -15.926500 41.055099 27 27 27 -0.031075 0.013701 -0.999423
10.061000 -15.677600 43.837002 27 27 27 -0.273505 -0.007798 -0.961839
10.618700 -14.087500 44.506901 18 18 18 -0.241654 0.800645 -0.548244
10.136300 -15.927900 46.645401 28 28 28 -0.251618 -0.031754 -0.967306
10.170100 -14.888700 49.427601 30 30 30 -0.100283 0.059483 -0.993179
10.663800 -14.042000 50.140999 8 8 8 -0.053728 0.902552 -0.427215
10.425800 -15.898400 52.229801 25 25 25 -0.131814 -0.012427 -0.991197
10.426700 -15.902200 55.022701 26 26 26 -0.181676 -0.004600 -0.983348
10.427400 -15.775800 57.816002 24 24 24 -0.367488 0.063700 -0.927844
11.146200 -14.012400 58.469601 30 30 30 -0.381624 0.778496 -0.498304
10.361500 -15.894300 60.631100 9 9 9 -0.060506 -0.009259 -0.998125
9.778480 -13.528900 -1.722720 1 1 1 0.019332 0.034264 0.999226
9.699080 -13.933500 5.052960 16 16 16 -0.027495 0.000486 -0.999622
10.675700 -13.906600 43.796700 25 25 25 -0.033155 0.069328 -0.997043
11.137900 -13.848400 43.864300 10 10 10 -0.100676 0.198423 -0.974932
10.673600 -13.942200 46.592999 28 28 28 0.060478 0.062166 -0.996232
10.521600 -13.899400 60.590199 24 24 24 -0.037450 -0.007171 -0.999273
9.893030 -10.349300 -1.793800 4 4 4 -0.204104 -0.015930 0.978820
11.578500 -11.356600 13.790900 1 1 1 -0.120392 -0.116792 -0.985832
9.806050 -10.504700 13.983900 1 1 1 0.399650 0.766143 -0.503293
9.839300 -9.978950 21.163200 24 24 24 -0.011511 0.919779 0.392267
10.021000 -10.554100 22.381800 25 25 25 -0.010626 0.911591 0.410960
11.630000 -8.470100 -1.809500 46 46 46 -0.708827 -0.063744 0.702497
9.875660 -8.107580 3.268180 21 21 21 -0.013511 0.509378 -0.860437
11.439100 -8.116180 5.854110 18 18 18 -0.029909 0.966644 -0.254373
9.687410 -8.181850 5.942650 71 71 71 -0.047742 0.960963 -0.272528
11.621700 -8.072930 8.358040 0 0 0 -0.262824 0.920849 0.288029
10.667200 -8.046800 11.988500 1 1 1 0.113488 0.978048 0.174763
9.687150 -9.361090 13.995200 1 1 1 0.042172 0.019429 -0.998921
9.704660 -8.480540 17.386900 22 22 22 -0.025741 0.939014 0.342915
9.932930 -9.200290 19.182199 12 12 12 -0.007776 0.940239 0.340427
9.737320 -9.727550 20.592400 28 28 28 -0.006916 0.927072 0.374819
9.891050 -7.670110 -1.800820 5 5 5 0.001991 0.053347 0.998574
9.694790 -7.677820 3.273050 21 21 21 -0.032102 0.778330 -0.627034
10.152500 -7.573480 3.858000 31 31 31 -0.025641 0.821842 -0.569138
9.686550 -7.934820 7.572570 39 39 39 -0.000701 0.956627 -0.291314
9.718720 -7.759720 7.987450 2 2 2 0.002012 0.997035 -0.076920
9.763650 -7.736950 10.005000 18 18 18 0.019655 0.999700 -0.014641
9.812160 -7.796950 11.876600 2 2 2 0.072094 0.997375 -0.006795
9.878800 -7.730690 13.877000 1 1 1 0.026399 0.999325 -0.025562
9.688570 -5.910160 -1.904200 33 33 33 0.003294 0.058899 0.998258
10.653900 -5.892140 4.026090 0 0 0 -0.028775 0.084465 -0.996011
9.804370 -3.908130 -2.021850 26 26 26 0.000883 0.002082 0.999997
9.704160 -1.937470 -1.973750 17 17 17 -0.002383 -0.014151 0.999897
11.529500 1.859090 -0.756632 1 1 1 -0.238793 0.702343 0.670590
11.526300 1.901970 0.966013 4 4 4 -0.810540 -0.170923 -0.560188
9.800940 3.146830 -2.010810 8 8 8 0.224464 -0.717061 0.659878
11.167600 4.072310 -2.035970 14 14 14 -0.050911 0.075335 0.995858
9.709860 7.774660 -2.287330 27 27 27 -0.010246 -0.061338 0.998065
9.719100 8.087820 -2.222130 40 40 40 -0.060999 -0.023978 0.997850
10.267800 12.645200 -2.161020 76 76 76 0.097746 -0.354634 0.929882
9.823080 12.445800 -1.812700 12 12 12 0.153534 0.011778 0.988073
9.738240 14.224200 -1.558180 13 13 13 -0.025405 -0.424314 0.905159
9.855260 32.005901 -1.050790 0 0 0 0.080914 -0.392975 0.915982
9.871830 32.059700 -1.094750 1 1 1 0.095953 -0.502315 0.859345
9.828940 35.027000 -0.447449 3 3 3 -0.065884 -0.218626 0.973582
9.889280 35.069500 -0.118480 27 27 27 0.096842 -0.282299 0.954426
13.482300 -34.432499 -0.760394 22 22 22 -0.291264 0.738490 -0.608110
12.900000 -33.816601 -1.165250 15 15 15 -0.125330 0.894795 -0.428526
12.307800 -32.763000 1.729090 10 10 10 -0.384053 0.259851 -0.885992
12.304700 -32.755100 1.905000 38 38 38 -0.428075 0.239080 -0.871546
12.404800 -28.084200 2.102310 15 15 15 -0.034151 -0.030494 -0.998951
12.803600 -26.516701 1.921550 36 36 36 -0.143151 0.053394 -0.988259
12.296800 -24.747601 0.650736 1 1 1 0.455912 0.624575 -0.634074
11.718400 -24.502800 2.139470 46 46 46 0.367836 0.720604 -0.587730
12.933400 -23.953699 3.895920 53 53 53 0.208544 0.977930 -0.012776
11.913100 -23.599199 -1.245360 22 22 22 -0.388300 -0.020632 -0.921302
11.717300 -23.580799 -0.107954 9 9 9 0.065781 0.996531 -0.050976
11.854200 -23.707600 3.252020 52 52 52 0.251028 0.967695 -0.023498
11.890800 -23.706100 3.889990 52 52 52 0.248086 0.968650 -0.013074
11.910600 -21.728800 -1.402260 2 2 2 0.100141 0.139174 0.985192
13.074900 -20.663500 5.263860 7 7 7 0.035239 0.043791 -0.998419
12.870600 -18.434700 -1.606380 0 0 0 0.031641 0.045167 0.998478
12.631200 -19.687300 5.461240 11 11 11 0.033039 -0.102780 -0.994155
11.920700 -17.875500 -1.613160 0 0 0 0.029645 0.036559 0.998892
11.701000 -16.541300 4.952560 17 17 17 0.081663 -0.066268 -0.994454
11.772300 -14.486000 -1.687250 1 1 1 -0.079870 -0.033042 0.996257
11.703800 -15.858600 4.901080 8 8 8 0.002603 -0.006970 -0.999972
11.846700 -15.703400 33.541302 6 6 6 -0.029277 0.946715 0.320739
11.831000 -15.725200 35.278999 3 3 3 -0.025669 0.994027 -0.106069
11.704500 -15.681400 36.327000 13 13 13 -0.001278 0.996711 0.081025
11.726100 -15.711900 38.100601 6 6 6 -0.153279 0.985627 -0.071030
11.919000 -15.723700 40.894699 4 4 4 -0.041114 0.984420 -0.170960
11.774900 -15.699000 43.573101 5 5 5 -0.018204 0.073684 -0.997115
11.794700 -14.403700 45.834202 6 6 6 -0.054064 0.983965 -0.169972
11.689200 -14.572100 46.477501 17 17 17 -0.028309 0.512828 -0.858025
11.709000 -14.560800 49.289799 20 20 20 -0.049897 0.797626 -0.601085
11.711200 -14.196100 50.750599 25 25 25 -0.048061 0.996811 0.063704
11.709600 -14.526100 52.105499 44 44 44 -0.080019 0.889041 -0.450780
11.687000 -14.463000 54.896301 63 63 63 -0.157644 0.934663 -0.318674
11.736800 -14.452600 57.699100 54 54 54 -0.131107 0.985755 0.105345
11.687100 -14.210300 60.578499 27 27 27 -0.020207 0.043675 -0.998841
11.901300 -13.704400 -1.715990 1 1 1 -0.084697 0.013441 0.996316
11.753700 -13.922700 5.005280 14 14 14 -0.021658 -0.001249 -0.999765
11.880900 -12.756400 13.788300 1 1 1 -0.027010 -0.051226 -0.998322
11.786800 -13.922800 43.776901 27 27 27 -0.015667 0.167972 -0.985667
11.705800 -13.935300 46.570801 25 25 25 0.014965 0.444751 -0.895529
12.007700 -13.937200 49.368999 27 27 27 0.034108 0.394922 -0.918081
13.441600 -13.925800 52.155701 27 27 27 -0.185190 0.576720 -0.795675
13.452300 -13.938900 54.933201 26 26 26 -0.079025 0.956937 -0.279332
13.162300 -13.917600 57.749001 25 25 25 -0.065083 0.937687 -0.341333
11.756300 -13.899100 60.572601 26 26 26 -0.029105 0.117882 -0.992601
12.771400 -10.008200 -0.669384 58 58 58 -0.730975 -0.681250 0.039667
12.795100 -10.001300 0.345164 56 56 56 -0.730544 -0.682198 0.030191
12.847900 -9.991310 2.646320 46 46 46 -0.748444 -0.661140 0.052212
12.661600 -11.485100 13.759300 1 1 1 -0.171638 -0.194825 -0.965704
13.180400 -10.257200 13.879400 0 0 0 0.364736 0.046517 -0.929948
11.914000 -8.677060 -1.703360 29 29 29 -0.938194 -0.110573 0.327973
11.870600 -8.109330 -0.096875 129 129 129 -0.958123 0.258146 0.123938
11.756000 -8.977740 3.571380 32 32 32 -0.795672 -0.246561 -0.553275
12.150800 -8.103580 5.848540 29 29 29 -0.036868 0.964276 -0.262320
11.810700 -8.093220 5.993270 59 59 59 -0.040203 0.959040 -0.280402
12.129800 -8.403580 8.886170 0 0 0 -0.874125 0.212458 0.436769
12.130900 -7.983830 10.680200 0 0 0 0.313703 0.939017 -0.140845
11.769400 -8.670930 12.943000 1 1 1 -0.206255 -0.082008 -0.975056
11.786200 -8.127120 15.497100 22 22 22 -0.038872 0.995006 0.091936
11.689600 -8.413050 17.335300 15 15 15 -0.024090 0.943118 0.331585
11.753100 -9.151450 19.179100 34 34 34 -0.007422 0.932213 0.361834
11.845000 -7.767620 -1.698370 7 7 7 -0.587487 0.088315 0.804400
11.857700 -7.926910 -0.095666 131 131 131 -0.938053 0.342992 0.049128
11.696100 -7.672070 3.214450 14 14 14 -0.098581 0.830031 -0.548935
11.742100 -7.514520 3.871050 25 25 25 -0.070764 0.881863 -0.466164
11.699200 -7.909540 6.392050 28 28 28 -0.045443 0.982787 -0.179069
11.709400 -7.705220 8.618270 0 0 0 0.072237 0.993445 0.088591
11.697000 -7.698640 10.849900 1 1 1 -0.002177 0.999994 0.002766
11.689600 -7.779180 11.992300 4 4 4 -0.054521 0.998071 0.029710
11.869000 -7.729430 14.179700 3 3 3 -0.042432 0.996085 0.077549
11.709600 -5.926510 -1.901680 25 25 25 -0.039146 0.052715 0.997842
12.291400 -5.935320 3.753690 5 5 5 -0.292851 0.001549 -0.956157
11.697400 -5.922720 3.955390 1 1 1 -0.050558 0.088282 -0.994812
11.712500 -3.933470 -2.024810 19 19 19 0.002025 0.042729 0.999085
11.752300 -1.934330 -1.966870 11 11 11 0.048400 -0.166179 0.984907
12.889400 -1.248780 0.762164 5 5 5 -0.944150 -0.066709 0.322694
12.210500 1.953220 -1.000340 1 1 1 -0.597093 0.708452 0.376265
12.223000 1.687210 1.256010 0 0 0 -0.911731 -0.055741 -0.406988
12.673200 1.344790 1.883180 1 1 1 -0.984824 -0.043264 -0.168078
11.768400 3.343200 -2.000180 7 7 7 -0.146802 -0.079406 0.985973
12.719400 2.181870 0.201695 1 1 1 -0.505471 0.820069 0.268303
11.697100 4.215690 -2.038020 13 13 13 -0.115961 0.132681 0.984352
11.874800 12.622700 -2.186820 33 33 33 -0.073173 -0.253562 0.964548
11.852700 12.694400 -2.141090 48 48 48 -0.071505 -0.211107 0.974844
11.727100 14.332400 -1.545530 76 76 76 0.037593 -0.452581 0.890930
12.660000 19.473801 -0.157248 1 1 1 -0.131034 -0.045578 -0.990330
12.366400 19.393200 -0.118141 1 1 1 -0.135020 0.042455 -0.989933
11.739000 35.265499 -0.448967 11 11 11 0.026644 -0.027970 0.999254
11.798400 35.297401 -0.111662 15 15 15 -0.046783 -0.299163 0.953054
15.653900 -40.881302 -0.268859 36 36 36 -0.928837 -0.208964 0.305934
15.357700 -40.880001 0.456128 34 34 34 -0.681811 0.110684 0.723106
14.310900 -36.277599 -0.972316 34 34 34 -0.422994 0.042692 0.905126
13.969100 -35.675900 -0.739692 21 21 21 -0.108452 0.205685 -0.972590
14.676200 -26.302900 -0.396012 44 44 44 -0.990807 0.132406 0.027748
14.734100 -26.020000 0.048367 11 11 11 -0.991753 0.125592 0.025549
14.717100 -25.914499 -1.120690 10 10 10 -0.991609 0.127060 0.023818
14.734600 -25.871401 0.105210 6 6 6 -0.989930 0.140868 0.013939
13.841900 -24.956301 2.082060 46 46 46 0.154588 0.775831 -0.611710
13.918200 -24.155199 3.904040 52 52 52 0.177611 0.984039 -0.011051
13.874000 -23.799101 -1.319440 29 29 29 -0.280955 0.322992 0.903737
13.691400 -23.759701 0.855217 24 24 24 0.055739 0.783294 -0.619148
13.807700 -23.150200 2.648080 44 44 44 0.192024 0.518213 0.833416
13.742000 -22.976000 5.442800 5 5 5 0.053623 0.411629 -0.909773
13.916800 -21.567801 -1.509200 12 12 12 0.034657 0.133771 0.990406
13.806400 -18.507401 -1.650460 1 1 1 0.030469 0.039232 0.998765
13.862000 -18.683701 5.428640 8 8 8 -0.018619 -0.007756 -0.999797
13.689100 -17.373800 -1.694930 1 1 1 0.033293 0.043012 0.998520
13.890400 -17.724400 5.403250 11 11 11 0.027488 -0.021515 -0.999391
13.685800 -15.840000 -1.727850 0 0 0 -0.129813 -0.102648 0.986211
15.087400 -14.748600 -0.100418 255 255 255 -0.998224 -0.025307 0.053924
13.705500 -15.666700 5.066530 12 12 12 0.070439 -0.158467 -0.984848
13.728400 -15.597000 33.526001 67 67 67 -0.057371 0.996335 0.063448
13.713700 -15.581300 34.742599 39 39 39 -0.121659 0.990868 -0.058142
13.850800 -15.500700 36.073002 10 10 10 -0.082544 0.996587 -0.001255
13.849700 -15.540800 37.884201 30 30 30 -0.044289 0.997541 0.054317
13.870300 -15.565600 40.305500 30 30 30 -0.029204 0.999372 -0.020070
13.705200 -15.577000 41.928699 29 29 29 -0.053392 0.998572 -0.001665
13.764000 -14.254300 45.370201 17 17 17 0.005985 0.999744 0.021830
13.724600 -14.466000 46.075199 24 24 24 -0.010428 0.882931 -0.469387
13.796100 -14.397400 48.917000 21 21 21 -0.029683 0.854376 -0.518807
13.874000 -14.299600 51.402000 16 16 16 -0.064616 0.993149 -0.097370
13.714400 -14.459400 52.034000 43 43 43 -0.085828 0.714801 -0.694041
13.856400 -14.283400 54.140499 19 19 19 -0.052138 0.998514 -0.015839
13.793900 -14.221000 56.972698 47 47 47 -0.029897 0.998427 -0.047434
13.859200 -14.183200 60.518600 24 24 24 -0.029396 0.051934 -0.998218
14.182000 -12.468800 -1.852360 0 0 0 -0.665680 -0.289617 0.687744
15.083200 -13.914900 -0.111853 90 90 90 -0.999961 -0.004263 0.007793
13.931600 -13.793400 4.960720 10 10 10 -0.049420 0.090932 -0.994630
13.733000 -13.938100 43.753799 25 25 25 -0.053829 0.173380 -0.983383
15.100400 -13.892200 44.459000 5 5 5 -0.028804 0.891067 -0.452957
13.936500 -13.899300 46.546001 27 27 27 -0.019488 0.493015 -0.869802
13.699000 -13.907400 49.358200 25 25 25 -0.054965 0.409737 -0.910546
13.944300 -13.910700 52.141399 25 25 25 -0.164580 0.477150 -0.863273
13.731600 -13.908900 54.930302 26 26 26 -0.012206 0.956207 -0.292437
13.747000 -13.926400 57.729198 23 23 23 -0.013053 0.944654 -0.327808
13.743300 -13.681800 60.541000 10 10 10 -0.033527 0.114698 -0.992834
13.772900 -11.835700 -1.856240 0 0 0 -0.684649 -0.564918 0.460569
14.000500 -11.172000 0.536647 41 41 41 -0.718164 -0.695361 0.026718
14.111300 -11.203500 2.789210 2 2 2 -0.701626 -0.711366 0.040974
13.754800 -10.347600 13.901400 1 1 1 0.094524 0.149713 -0.984201
14.923300 -8.226260 -1.303630 5 5 5 -0.019675 0.262735 0.964668
15.010500 -8.250430 -0.065380 6 6 6 -0.066260 0.993530 0.092233
13.866500 -8.037210 5.815510 38 38 38 -0.026274 0.973652 -0.226518
13.903800 -8.012910 5.879900 49 49 49 -0.025153 0.976750 -0.212899
13.705300 -8.066530 15.500500 19 19 19 -0.051220 0.995053 0.085122
13.772000 -8.364690 17.351000 7 7 7 -0.029701 0.940025 0.339811
13.691400 -9.090170 19.124701 40 40 40 -0.023525 0.927554 0.372948
13.769500 -7.476990 -1.758940 23 23 23 0.006927 0.999320 0.036226
14.295000 -7.857160 -0.000261 6 6 6 0.276811 0.960916 0.003985
13.719900 -7.452120 3.403090 31 31 31 0.181327 0.578925 -0.794963
14.307800 -6.233680 3.863140 1 1 1 -0.023987 0.264703 -0.964032
13.692400 -7.936570 6.173780 27 27 27 -0.021894 0.986140 -0.164466
13.711600 -7.698520 8.598040 0 0 0 -0.137587 0.989555 0.043029
13.769100 -7.550720 9.971190 12 12 12 -0.123376 0.992051 -0.024744
13.696600 -7.624020 11.888600 1 1 1 -0.031661 0.999268 0.021456
13.764600 -7.778080 14.898800 20 20 20 -0.012741 0.950066 0.311789
13.715200 -4.112850 -1.874920 16 16 16 -0.066532 0.079146 0.994640
14.943900 -4.421040 0.402245 46 46 46 0.010113 0.998688 0.050209
14.896300 -5.940410 3.692290 12 12 12 0.040924 0.055863 -0.997599
14.170900 -5.858990 3.926300 0 0 0 -0.036411 0.278736 -0.959677
13.729400 -3.929550 -1.967700 24 24 24 -0.033195 0.122550 0.991907
13.778300 -1.055300 -0.677527 2 2 2 -0.221120 0.817604 -0.531629
14.320000 -1.387390 0.829077 1 1 1 -0.707338 -0.613272 0.351525
13.697200 3.047210 -0.952508 104 104 104 0.115552 -0.859870 -0.497264
14.026100 4.079040 -1.607740 255 255 255 -0.452655 0.466059 0.760192
15.541600 6.773360 6.853880 3 3 3 -0.980835 0.174934 0.085790
15.273300 8.705180 -0.365372 255 255 255 -0.762440 -0.640873 0.089263
15.271300 8.652830 -0.134820 0 0 0 -0.792787 -0.601329 0.099459
15.352100 8.672580 1.892840 0 0 0 -0.906725 0.421679 -0.006155
15.390100 8.642320 3.862300 0 0 0 -0.817454 0.563870 0.117559
15.430300 8.689430 5.904950 1 1 1 -0.997077 0.032236 -0.069271
14.236300 11.080100 -2.165890 7 7 7 -0.103948 -0.162292 0.981252
14.420200 11.877100 -2.107900 66 66 66 -0.005313 -0.118535 0.992936
15.379400 11.265400 8.394170 0 0 0 -0.873416 0.288599 -0.392244
15.610800 10.987800 10.141000 0 0 0 -0.711243 0.606563 -0.355267
15.580600 12.314500 -2.143540 14 14 14 0.010770 -0.157760 0.987419
13.696300 13.399300 -2.100990 75 75 75 0.121433 -0.368438 0.921687
13.850200 13.963900 -0.096079 5 5 5 -0.996723 -0.013900 0.079691
13.712300 14.393400 -1.596240 68 68 68 0.040136 -0.438956 0.897612
14.256600 14.703200 0.203619 11 11 11 -0.981191 -0.191202 -0.026574
14.058200 17.537600 -1.306680 29 29 29 -0.959110 -0.049336 -0.278701
14.290600 16.098400 -0.095691 13 13 13 -0.996417 -0.049022 0.068917
13.904900 18.125999 -1.361220 25 25 25 -0.992211 -0.064059 -0.106831
13.925900 19.180300 -0.044310 17 17 17 -0.473306 -0.153216 0.867471
13.764000 20.213400 -1.022720 9 9 9 -0.204296 -0.107923 -0.972942
13.774500 20.283701 0.137478 1 1 1 -0.011553 -0.208149 0.978029
15.588400 29.244600 -1.462080 1 1 1 -0.445284 -0.530162 0.721561
15.711400 -40.877602 -0.391408 36 36 36 -0.938895 -0.240592 0.246153
15.710500 -40.875198 -0.114876 37 37 37 -0.930109 -0.211837 0.300037
17.216499 -41.793201 1.888790 10 10 10 -0.786058 -0.185841 0.589556
15.927200 -39.936001 -0.030401 8 8 8 -0.935394 -0.331443 -0.123221
15.923700 -39.642200 1.877940 19 19 19 -0.942385 -0.254345 0.217302
17.104601 -33.990200 0.133268 6 6 6 -0.999968 0.003625 -0.007109
17.050200 -33.567699 -0.658258 4 4 4 -0.995645 0.016933 0.091680
17.103399 -33.882500 0.118620 4 4 4 -0.999962 0.003583 -0.007985
16.966700 -30.953300 -1.197480 3 3 3 -0.992623 -0.102974 0.064000
16.995001 -31.005699 0.088292 6 6 6 -0.991648 -0.126876 0.023156
17.108900 -26.081600 0.697267 26 26 26 -0.919540 -0.389635 -0.051297
16.927099 -27.352501 1.894200 29 29 29 -0.819957 -0.230855 -0.523810
16.183001 -24.467600 -1.139130 8 8 8 0.130187 0.772302 -0.621772
15.907900 -24.250900 0.831565 40 40 40 -0.029103 0.189030 0.981540
15.695000 -25.220400 2.105330 53 53 53 -0.280182 0.718814 -0.636243
15.702600 -24.405800 3.903420 53 53 53 0.119477 0.992793 -0.009366
15.732000 -23.785700 -1.071500 9 9 9 -0.058550 0.219454 -0.973864
16.667999 -23.810600 -0.110029 94 94 94 -0.636126 0.532167 0.558697
15.900100 -23.461000 2.527410 33 33 33 0.277780 0.549208 0.788168
16.904699 -23.895599 4.330830 35 35 35 -0.960704 0.268720 0.069546
15.719100 -21.864700 -1.505240 13 13 13 -0.031833 0.316657 0.948006
16.066401 -21.316000 5.301960 39 39 39 -0.010474 0.015800 -0.999820
15.711000 -19.633801 -1.625210 0 0 0 0.022881 0.049397 0.998517
15.925200 -19.600599 5.346920 11 11 11 -0.031821 -0.007092 -0.999468
15.770700 -17.706499 -1.715860 1 1 1 0.020786 0.047645 0.998648
15.776300 -16.716900 5.341530 10 10 10 -0.017541 -0.005069 -0.999833
15.873500 -14.027700 -1.879900 0 0 0 -0.673268 -0.091569 -0.733706
15.913300 -15.248800 5.161140 12 12 12 0.051092 -0.188240 -0.980793
16.579500 -15.280100 32.504200 28 28 28 0.020652 0.992383 0.121447
15.909600 -15.578300 35.200298 9 9 9 0.014247 0.995059 -0.098259
15.690400 -15.558500 36.249901 13 13 13 0.018032 0.993353 0.113689
15.742400 -15.572300 37.997002 10 10 10 0.026261 0.999119 -0.032722
15.744100 -15.576000 40.777199 3 3 3 -0.034967 0.993702 -0.106456
15.918200 -15.474000 41.910099 47 47 47 -0.028289 0.999577 -0.006822
15.832100 -14.274000 45.757198 6 6 6 -0.015565 0.996067 -0.087223
15.801700 -14.427300 46.404701 27 27 27 -0.009268 -0.927087 -0.374731
15.914800 -14.241400 48.554401 11 11 11 -0.007001 0.994529 -0.104229
15.764100 -14.216500 51.340599 27 27 27 0.000606 0.993709 -0.111991
15.790000 -14.383700 52.009499 37 37 37 0.007075 0.444527 -0.895737
15.753800 -14.352700 54.803200 49 49 49 -0.046298 0.763210 -0.644490
15.704500 -14.309600 57.612400 55 55 55 0.018904 -0.952864 -0.302810
15.698000 -14.126900 60.480099 25 25 25 -0.012682 0.040061 -0.999117
15.695000 -13.799100 -1.918810 0 0 0 -0.762201 -0.079628 -0.642425
15.693500 -13.941900 4.853890 25 25 25 -0.006210 -0.071156 -0.997446
16.151899 -12.244500 13.205400 0 0 0 -0.145926 -0.006974 -0.989271
17.413000 -12.800800 27.234100 38 38 38 -0.027865 0.911399 0.410580
15.727700 -13.930200 43.700199 25 25 25 -0.061033 0.173674 -0.982910
15.850700 -13.898600 46.503799 26 26 26 -0.079389 0.781854 -0.618387
15.917300 -13.888600 49.302898 25 25 25 -0.002424 0.560079 -0.828436
15.742300 -13.912900 52.104401 27 27 27 -0.045280 0.842905 -0.536153
15.686600 -13.936100 54.894600 27 27 27 -0.005299 0.829252 -0.558849
15.712800 -13.926100 57.691399 25 25 25 0.027094 0.797860 -0.602233
15.708300 -13.923800 60.492401 27 27 27 -0.014365 0.150593 -0.988492
16.105600 -7.949740 -1.321260 0 0 0 -0.933768 0.077698 0.349343
15.684900 -8.621080 -0.135226 8 8 8 -0.416012 0.905067 0.088253
16.749100 -7.959470 5.854580 28 28 28 -0.052687 0.960449 -0.273427
16.788601 -7.952350 5.884780 49 49 49 -0.055885 0.962560 -0.265246
16.595699 -8.775740 9.253890 0 0 0 -0.980619 0.180182 -0.076950
16.611799 -8.785080 10.652100 0 0 0 -0.978164 0.133545 0.159250
15.921500 -9.153890 13.843400 0 0 0 -0.981215 -0.008841 0.192712
15.900100 -9.141610 13.861000 0 0 0 -0.980945 0.007762 0.194129
15.897000 -8.233270 17.170000 5 5 5 -0.022676 0.956573 0.290610
15.717000 -9.013680 19.080400 40 40 40 -0.026337 0.933246 0.358271
15.704400 -7.411310 -1.702850 16 16 16 -0.016941 0.913359 0.406802
15.684200 -7.767470 1.668920 9 9 9 0.168245 0.917334 -0.360822
15.716400 -7.394280 3.036170 16 16 16 -0.255760 0.881003 -0.398021
16.178301 -6.688680 3.878020 0 0 0 -0.400462 0.431663 -0.808268
15.701100 -7.901310 6.096930 29 29 29 -0.047981 0.984139 -0.170787
15.684500 -7.575770 8.529670 2 2 2 -0.029862 0.999551 -0.002443
15.687100 -7.504860 9.922440 13 13 13 -0.015517 0.999835 0.009472
15.688000 -7.555120 11.865700 7 7 7 -0.028144 0.999483 0.015531
15.798100 -7.708620 14.835600 15 15 15 -0.023395 0.948849 0.314861
17.485399 -7.940430 15.868700 16 16 16 -0.030526 0.999502 0.007981
15.870900 -5.131550 -1.840640 4 4 4 -0.830991 -0.161951 0.532190
16.018400 -4.673350 0.416527 33 33 33 -0.451445 0.873312 0.183097
15.742100 -5.577450 3.856170 0 0 0 0.002312 0.128695 -0.991682
15.722500 -5.592730 3.859700 0 0 0 0.003217 0.134354 -0.990928
16.358101 -3.805260 0.342704 29 29 29 -0.981912 -0.185349 -0.038664
16.490400 -3.814840 2.655550 22 22 22 -0.961840 0.229688 -0.148685
16.376200 -0.861067 -1.895720 2 2 2 -0.251923 -0.320448 -0.913153
15.870500 3.176660 -1.217750 7 7 7 0.129237 -0.537241 0.833469
15.701000 4.268120 -0.549934 26 26 26 -0.494656 0.211593 0.842938
17.368700 6.087210 -1.846800 12 12 12 -0.540751 -0.634694 0.552043
15.718800 6.873510 7.104260 27 27 27 -0.999482 -0.029709 -0.012384
16.120199 8.450720 -0.360546 27 27 27 -0.825461 -0.535749 -0.177729
16.109301 9.020430 1.577520 1 1 1 0.412125 -0.908043 0.074902
15.963900 9.124050 3.388840 0 0 0 -0.629249 0.767626 0.121639
16.025999 8.972840 3.906160 0 0 0 0.364344 -0.918488 -0.153734
16.038401 8.978600 6.322010 0 0 0 -0.974222 0.209378 0.083978
16.449301 10.272800 -0.446951 0 0 0 0.001437 -0.487312 -0.873227
17.466200 11.366700 8.394330 0 0 0 -0.787145 0.591396 -0.175084
15.724200 12.396000 -2.128700 15 15 15 0.024068 -0.167094 0.985647
15.898900 14.096500 -1.726280 12 12 12 -0.072151 -0.346740 0.935182
16.654400 21.264099 0.798197 40 40 40 -0.234911 -0.098349 0.967029
16.016500 30.599400 -0.502920 2 2 2 -0.472086 -0.187254 0.861435
17.699200 -26.760700 -0.157744 20 20 20 -0.827976 -0.367817 -0.423282
17.916800 -27.312700 0.033338 48 48 48 -0.265451 -0.066745 -0.961811
17.763901 -27.304001 1.904840 49 49 49 -0.107304 0.099973 0.989187
18.554199 -24.358000 -1.415480 22 22 22 0.366994 0.819231 -0.440653
18.576700 -24.324800 0.577413 38 38 38 0.532212 0.842931 -0.078844
18.600401 -24.421200 2.946670 7 7 7 0.290509 0.824352 0.485847
18.651300 -24.424299 3.881200 3 3 3 0.361882 0.928280 0.085665
17.906300 -23.752701 -1.413490 79 79 79 0.500322 0.862013 0.081310
17.811399 -23.753099 -0.011666 55 55 55 0.281396 0.958729 0.040676
17.711500 -23.744301 1.905970 105 105 105 -0.114959 0.992596 0.039221
17.721500 -23.820700 3.875700 64 64 64 -0.248925 0.968418 0.014244
18.169100 -21.516800 -1.645180 1 1 1 0.092673 0.176185 0.979985
17.897900 -20.509899 5.342970 8 8 8 -0.002791 -0.013967 -0.999899
17.783001 -18.603800 -1.756720 0 0 0 0.031038 0.044291 0.998536
17.933901 -19.586300 5.297430 12 12 12 -0.025587 0.000028 -0.999673
17.883101 -17.660700 5.286710 10 10 10 -0.032500 0.013487 -0.999381
17.904800 -15.705400 5.249210 10 10 10 -0.017000 -0.065862 -0.997684
17.699301 -15.506800 33.308201 17 17 17 0.159986 0.984899 0.066171
17.859800 -15.648600 35.276699 26 26 26 0.160839 0.986954 0.007291
18.126699 -15.763600 37.004501 15 15 15 0.267558 0.963345 0.019492
17.924601 -15.668000 38.070599 25 25 25 0.158015 0.987281 0.017533
17.895500 -15.565500 40.890701 22 22 22 0.090891 0.995861 0.000075
17.896601 -15.528600 43.681900 23 23 23 0.134971 -0.053792 -0.989388
17.787500 -14.261200 46.461201 26 26 26 0.017292 0.997497 0.068564
17.891199 -14.235600 49.251202 23 23 23 0.017572 0.999789 -0.010612
17.902500 -14.063500 52.055401 25 25 25 -0.048277 0.998459 0.027358
17.758900 -14.280200 54.744499 44 44 44 0.045810 0.791301 -0.609708
17.691999 -14.228200 57.573399 52 52 52 0.032454 0.360385 -0.932239
17.695200 -14.014200 60.448200 20 20 20 0.041672 0.998447 0.036982
18.071400 -12.699300 27.187500 1 1 1 -0.034161 0.909918 0.413379
17.710800 -13.908100 43.655399 26 26 26 0.020402 0.064975 -0.997678
17.887199 -13.832000 46.455200 24 24 24 -0.180077 0.953631 -0.241166
17.697201 -13.900900 49.255299 25 25 25 -0.144257 0.987260 -0.067140
17.909599 -13.923700 52.053699 25 25 25 -0.112325 0.992930 0.038383
17.705999 -13.911300 54.829399 25 25 25 -0.126269 0.929842 -0.345617
17.687599 -13.898500 57.642601 25 25 25 -0.100307 0.867827 -0.486637
17.694799 -13.941800 60.443001 22 22 22 0.010931 0.999919 0.006542
18.783899 -9.970000 21.550501 31 31 31 -0.011644 0.925101 0.379542
17.804501 -7.951000 16.476500 23 23 23 -0.035651 0.998416 0.043522
17.727400 -8.956040 19.004400 35 35 35 -0.013791 0.929717 0.368017
19.118200 -9.781240 21.177500 11 11 11 -0.012006 0.929007 0.369867
17.707701 -7.712660 -1.108840 1 1 1 -0.104125 0.906609 0.408923
17.691601 -7.706580 1.536520 0 0 0 -0.136439 0.988408 0.066590
17.867599 -7.676700 2.140160 0 0 0 -0.128084 0.934458 -0.332238
17.684500 -7.891030 5.751230 21 21 21 -0.041561 0.975215 -0.217319
17.735600 -7.886850 5.890850 17 17 17 -0.039554 0.966481 -0.253672
17.712900 -7.534350 7.883250 2 2 2 0.030221 0.993937 -0.105714
17.779100 -7.510840 10.443900 6 6 6 0.020722 0.999767 0.006108
17.859301 -7.466900 12.589200 13 13 13 0.002319 0.999979 0.005970
17.702101 -7.931690 15.384700 15 15 15 -0.014765 0.993330 0.114361
17.707001 -7.934200 15.871100 16 16 16 -0.030065 0.999511 0.008648
17.901899 -4.377910 -1.872110 9 9 9 -0.494212 -0.752367 -0.435544
18.263500 -5.932850 3.751000 2 2 2 0.003755 0.371859 -0.928282
18.914700 -5.908620 3.893370 0 0 0 -0.015503 0.343939 -0.938864
17.921000 5.778130 -1.893620 5 5 5 -0.457137 -0.810525 0.366163
17.694300 6.100040 -1.147670 5 5 5 -0.365796 -0.836485 0.408028
18.901800 8.100950 -0.510136 1 1 1 0.000489 -0.288815 0.957385
18.405899 10.550200 3.849430 1 1 1 0.486378 -0.858712 -0.161399
19.021200 10.902900 4.005860 1 1 1 0.485781 -0.857196 -0.170974
17.706600 12.839500 -1.502630 11 11 11 -0.495165 -0.688147 0.530344
17.797600 16.556000 -0.920196 7 7 7 -0.058308 -0.993695 0.095766
18.680599 16.647400 -0.032628 6 6 6 -0.280543 -0.957198 -0.071189
18.813801 16.513000 1.903820 7 7 7 0.013036 -0.996532 0.082188
18.924900 16.524300 3.874670 7 7 7 -0.056842 -0.998359 0.006951
18.933701 16.741400 5.899140 6 6 6 -0.510414 -0.859307 0.032686
19.098900 16.548000 7.875340 6 6 6 -0.272539 -0.962145 0.000161
19.170000 16.566000 9.867980 6 6 6 -0.202105 -0.975321 -0.088900
19.166500 16.688299 11.872300 6 6 6 -0.217646 -0.972514 0.082747
19.330200 16.617901 13.888200 5 5 5 -0.312260 -0.949258 -0.037450
19.412800 16.645500 15.875800 5 5 5 -0.202002 -0.979239 0.016944
19.412399 16.727400 17.869200 5 5 5 -0.881206 -0.462829 0.096258
19.578699 16.655600 19.873899 5 5 5 -0.410135 -0.911287 -0.036675
19.659700 16.680599 21.879101 6 6 6 -0.644059 -0.747527 0.162457
19.651699 16.801001 23.864799 5 5 5 -0.833809 -0.551997 0.007794
18.588800 19.658400 -0.799586 42 42 42 -0.963930 -0.160977 0.211954
18.632200 19.653799 0.602830 5 5 5 -0.036235 -0.996313 0.077769
18.652399 19.724300 1.894880 7 7 7 -0.109511 -0.993426 0.033355
18.850100 18.071301 4.703420 6 6 6 -0.936224 0.140819 -0.321954
18.905600 19.691099 5.878090 6 6 6 -0.774558 -0.591589 0.223789
18.904699 19.739799 7.884380 5 5 5 -0.049638 -0.998334 0.029404
19.043100 18.068300 9.886760 11 11 11 -0.974101 -0.028364 -0.224329
19.172400 18.188801 13.196600 9 9 9 -0.386136 0.140507 -0.911678
19.176800 18.516300 13.999100 4 4 4 -0.978910 -0.056141 -0.196427
19.359900 18.088600 17.851200 5 5 5 -0.985743 0.087945 -0.143447
19.360001 18.088600 17.899700 4 4 4 -0.935106 0.070451 -0.347294
19.383499 19.977699 19.870199 5 5 5 -0.261172 -0.965290 -0.002042
19.641100 18.072701 22.093399 8 8 8 -0.782372 -0.046218 -0.621094
19.680500 18.900600 23.880800 7 7 7 -0.998429 -0.035819 0.043083
19.679501 19.871901 25.880100 4 4 4 -0.996132 -0.081624 0.032532
18.528299 20.144600 -0.763267 22 22 22 -0.314107 -0.947542 -0.059166
18.592100 20.112900 0.800812 10 10 10 -0.678392 -0.732949 -0.050695
18.641001 20.065701 2.129700 6 6 6 -0.679356 -0.731870 0.053308
18.752001 20.079700 4.145320 5 5 5 -0.808598 -0.586018 0.052456
18.801800 20.081200 5.872150 6 6 6 -0.851789 -0.523610 0.016978
18.894800 20.079000 7.890560 5 5 5 -0.709719 -0.704182 -0.020644
18.927999 21.477699 9.919010 13 13 13 -0.999680 -0.025227 -0.001615
19.055599 20.093700 11.876000 5 5 5 -0.596462 -0.801177 0.048463
19.140200 20.081600 13.864900 6 6 6 -0.993834 -0.093445 0.059678
19.223000 20.216700 15.866600 4 4 4 -0.769702 -0.635096 0.064893
19.322201 20.115999 18.369200 5 5 5 -0.994720 -0.101649 -0.014111
19.388800 20.080999 19.902000 5 5 5 -0.400846 -0.915110 0.043551
19.433500 21.489901 22.975000 5 5 5 -0.998155 -0.055564 -0.024476
19.541401 20.087000 23.873699 4 4 4 -0.996620 -0.048265 0.066479
19.632601 20.076000 25.902599 4 4 4 -0.996951 -0.076615 0.014788
18.571800 22.811199 1.153290 6 6 6 -0.830269 -0.436764 0.346253
18.618999 22.811501 1.902940 7 7 7 -0.000543 -0.997064 0.076567
18.678101 22.764799 4.693920 6 6 6 -0.980014 -0.115593 -0.161896
18.828600 22.830000 5.886670 6 6 6 -0.694529 -0.683724 0.223944
18.879601 22.083500 9.100390 6 6 6 -0.999637 -0.010419 -0.024837
18.912800 22.296499 9.859490 13 13 13 -0.997136 0.029525 0.069624
19.050900 22.059500 13.199500 5 5 5 -0.809598 -0.138549 -0.570399
19.084000 22.097300 13.892000 10 10 10 -0.959439 0.016781 -0.281417
19.136101 23.019400 15.905400 4 4 4 -0.181919 -0.982305 0.044530
19.176901 23.663500 17.873199 5 5 5 -0.995597 -0.009928 -0.093211
19.390200 22.966101 19.882500 7 7 7 -0.229663 -0.972662 0.034390
19.417601 22.136801 22.174200 7 7 7 -0.977044 -0.148105 -0.153135
19.611401 22.184900 24.142599 4 4 4 -0.991585 -0.107060 0.072780
19.672300 22.252199 26.005600 4 4 4 -0.997370 -0.067708 0.025840
19.681801 22.835300 27.870501 5 5 5 -0.998906 -0.038289 0.026860
18.406200 26.033001 0.884062 6 6 6 -0.126795 -0.990593 0.051469
18.549101 25.957001 1.887760 7 7 7 -0.013333 -0.999883 -0.007457
18.635500 24.225800 4.672420 7 7 7 -0.999002 -0.043523 0.009989
18.645399 26.020700 6.449370 5 5 5 -0.043900 -0.998583 0.030092
18.814400 24.078199 9.089760 5 5 5 -0.998891 0.029549 -0.036666
18.919399 26.051600 10.248300 7 7 7 -0.288157 -0.940576 0.179673
18.931801 25.724701 13.226400 6 6 6 -0.950039 -0.094977 -0.297329
19.023800 24.091900 13.881800 12 12 12 -0.999313 -0.030301 -0.021320
19.169201 24.587700 17.840000 5 5 5 -0.952864 0.081870 -0.292143
19.174101 24.153799 17.887699 4 4 4 -0.922102 0.141067 -0.360316
19.335600 24.290100 22.287300 5 5 5 -0.997567 0.056535 0.040781
19.539801 24.231501 23.931601 3 3 3 -0.999165 0.014278 0.038278
19.596300 24.173901 25.880899 9 9 9 -0.999717 -0.000063 0.023789
19.680000 24.212000 28.805500 5 5 5 -0.998644 -0.009811 0.051133
19.663300 25.873800 32.656799 7 7 7 -0.930088 -0.047715 -0.364225
18.400900 26.095699 0.878375 5 5 5 -0.175390 -0.984469 0.007639
18.447599 26.091000 1.891750 5 5 5 -0.220964 -0.974798 0.030731
18.538200 26.077999 3.901080 6 6 6 -0.180207 -0.983157 0.030455
18.630501 26.068399 6.151250 5 5 5 -0.161482 -0.986675 0.019899
