ply
format ascii 1.0
element vertex 725
property float x
property float y
property float z
property uchar red
property uchar green
property uchar blue
property float nx
property float ny
property float nz
end_header
-13.603500 -10.943400 -0.324364 5 5 5 0.949460 -0.299209 -0.094863
-13.509800 -11.038300 3.023740 8 8 8 0.868525 -0.490884 0.068533
-12.364300 -9.622850 9.336650 0 0 0 0.994554 -0.087889 -0.056021
-12.356700 -9.971800 9.636760 0 0 0 0.996785 -0.079417 -0.010657
-12.293800 -9.923140 12.477600 0 0 0 0.988728 0.009932 -0.149390
-13.426200 -11.005400 13.585500 0 0 0 -0.084937 0.005306 -0.996372
-13.848400 -9.527560 19.018600 18 18 18 -0.010165 0.941925 0.335668
-13.712100 -8.298390 -1.076900 1 1 1 0.009353 0.999713 0.022064
-13.819300 -8.268390 -0.573134 15 15 15 -0.024742 0.998638 0.045938
-13.779100 -8.221980 1.422140 12 12 12 0.045351 0.998118 -0.041278
-13.761700 -8.095080 3.528590 7 7 7 -0.141370 0.975298 0.169732
-13.742500 -8.677720 5.463210 38 38 38 -0.028934 0.984637 -0.172202
-13.614700 -8.243630 7.767720 22 22 22 -0.044231 0.989985 -0.134065
-13.845000 -8.219000 9.619470 5 5 5 -0.057269 0.997296 -0.046060
-13.827400 -8.186280 11.835800 2 2 2 -0.032914 0.999456 -0.002051
-13.807600 -8.556270 15.328400 21 21 21 -0.021602 0.997512 0.067109
-13.847100 -8.824690 17.236799 8 8 8 0.000883 0.949566 0.313565
-13.739600 -9.125010 17.873100 14 14 14 -0.003047 0.939966 0.341256
-13.686700 -6.087450 -1.883670 17 17 17 0.674853 -0.320689 -0.664630
-13.629100 -5.859030 0.447465 46 46 46 0.681897 -0.730575 0.035727
-13.504800 -5.211670 1.582850 33 33 33 0.020555 0.989871 -0.140476
-13.803300 -7.124670 3.562210 5 5 5 -0.045782 0.367348 -0.928956
-13.799600 -4.715490 -2.021710 34 34 34 -0.015868 0.692291 0.721444
-13.643400 -5.127340 0.221536 51 51 51 0.238029 0.970581 0.036266
-13.674700 -5.120120 1.767240 42 42 42 0.139146 0.984022 -0.111079
-13.165700 -1.596330 -2.062550 11 11 11 -0.010410 -0.010116 0.999895
-13.709200 1.960600 -2.054930 6 6 6 -0.076726 -0.989155 0.125242
-12.517700 2.257700 -0.531936 1 1 1 0.025774 -0.954968 0.295586
-12.700400 4.465450 -2.251290 10 10 10 -0.226305 -0.364992 0.903088
-12.117800 4.904820 -1.848790 1 1 1 -0.042990 -0.833299 0.551149
-13.655400 7.643610 -0.767773 255 255 255 0.446994 -0.796423 0.407316
-13.674300 7.631470 -0.565697 15 15 15 0.461848 -0.819023 0.340438
-12.597100 11.953200 -1.966780 12 12 12 -0.051957 -0.953523 0.296808
-12.974700 18.441799 -0.082360 0 0 0 -0.041440 -0.422536 0.905398
-13.818500 19.588699 -0.620954 1 1 1 0.127733 -0.192818 -0.972885
-11.912100 36.219700 -1.174670 6 6 6 0.453155 -0.713999 -0.533719
-12.180400 38.665600 -1.325430 6 6 6 0.330353 -0.519632 -0.787940
-11.815900 -16.084101 32.901001 14 14 14 0.381045 0.918606 0.104727
-11.617700 -16.068001 33.675800 19 19 19 0.165467 0.976128 0.140692
-11.646800 -16.026100 35.716301 18 18 18 0.688425 0.703781 -0.175396
-11.618400 -15.988500 37.496399 16 16 16 0.695510 0.706288 0.131994
-11.801900 -15.945500 39.458698 13 13 13 0.584830 0.809378 0.053679
-11.767500 -15.900900 41.663700 12 12 12 0.701649 0.710256 -0.056785
-11.644100 -15.859700 43.643002 10 10 10 0.770675 0.632012 -0.081370
-11.737500 -15.822100 45.682098 9 9 9 0.671175 0.741250 -0.008523
-11.697400 -15.769600 47.483700 7 7 7 0.697138 0.716156 -0.033462
-11.622300 -15.711700 49.757000 5 5 5 0.749539 0.661535 -0.023708
-11.807500 -15.714200 51.662201 4 4 4 0.632382 0.753909 -0.178082
-11.715100 -15.675000 54.824699 3 3 3 0.647944 0.761460 -0.018611
-11.414600 -15.598400 55.439800 2 2 2 0.670346 0.740552 -0.047109
-11.614000 -15.582900 57.681702 12 12 12 0.736615 0.675554 -0.032011
-11.616400 -15.547600 60.278801 1 1 1 0.739911 0.635716 -0.219991
-10.911500 -16.117500 61.764702 3 3 3 0.098401 0.994340 0.040076
-10.872200 -16.062201 64.939201 6 6 6 -0.005733 0.998839 -0.047826
-10.869500 -16.015200 65.629799 3 3 3 0.013203 0.998762 -0.047960
-11.060200 -15.327100 68.984802 10 10 10 0.325338 0.905910 -0.271077
-11.843300 -13.687800 13.231500 1 1 1 0.033541 -0.048374 -0.998266
-11.677100 -14.534700 13.845100 1 1 1 0.054547 -0.295177 -0.953884
-11.835600 -15.106200 46.563400 26 26 26 0.749064 0.339147 -0.569107
-11.813500 -15.119500 49.365200 25 25 25 0.909769 0.396545 -0.122770
-11.835800 -15.150000 52.159000 26 26 26 0.893148 0.417451 -0.167399
-11.748500 -15.156400 54.936699 25 25 25 0.862493 0.498119 -0.089354
-11.721100 -15.163200 57.736900 21 21 21 0.817180 0.574684 0.044220
-11.813300 -15.166200 60.527100 24 24 24 -0.122463 -0.060140 -0.990649
-10.693600 -15.138500 68.979103 7 7 7 0.480634 0.769607 -0.420353
-11.770800 -12.226100 -0.775459 7 7 7 -0.178421 0.336201 0.924735
-11.823100 -12.219600 -0.573040 9 9 9 -0.043782 0.607843 0.792849
-11.456500 -12.297200 2.871680 11 11 11 0.376993 0.112361 0.919375
-10.228800 -11.823500 13.175800 1 1 1 -0.070313 0.469746 -0.879997
-11.670500 -9.172990 -1.589600 1 1 1 0.096553 -0.168488 0.980963
-10.611400 -11.135300 2.485660 5 5 5 -0.308773 0.148571 -0.939460
-11.822900 -9.419150 8.988150 0 0 0 0.872851 0.337991 0.351985
-11.835900 -9.285630 10.176400 0 0 0 0.965066 0.229512 0.126384
-11.847300 -10.970800 13.735800 0 0 0 0.036805 0.139982 -0.989470
-11.800500 -9.481190 18.929100 8 8 8 -0.037514 0.941583 0.334685
-10.897700 -9.970840 20.355900 2 2 2 0.005693 0.925479 0.378756
-11.480000 -10.556600 21.576900 14 14 14 -0.014151 0.915963 0.401014
-11.635800 -9.122280 -1.589430 1 1 1 0.106770 -0.181731 0.977535
-11.664200 -9.073120 0.019383 13 13 13 0.118231 -0.025537 0.992658
-11.768900 -8.599430 2.745240 0 0 0 -0.060737 0.287393 -0.955885
-11.825500 -8.642150 5.357360 54 54 54 -0.026294 0.987691 -0.154195
-11.789100 -8.661010 5.423210 52 52 52 -0.021439 0.982340 -0.185870
-11.847800 -8.591980 8.121930 0 0 0 0.080567 0.993277 0.083125
-11.844300 -8.544380 9.492440 0 0 0 0.275826 0.723442 0.632892
-11.623400 -8.167430 11.785100 0 0 0 -0.047594 0.997505 0.052130
-11.848400 -8.528810 15.283600 24 24 24 0.003069 0.997118 0.075802
-11.792200 -8.786500 17.164700 17 17 17 -0.008464 0.951155 0.308598
-11.823300 -9.090420 17.804399 19 19 19 -0.009754 0.948443 0.316799
-11.762800 -5.626740 -1.900510 24 24 24 0.032860 0.134918 0.990312
-11.829600 -7.120170 3.729820 1 1 1 -0.112932 0.141725 -0.983443
-11.849400 -4.935280 -1.935610 22 22 22 0.006911 0.220176 0.975436
-11.709500 -2.975380 -2.055100 13 13 13 0.000766 -0.010070 0.999949
-11.100600 0.530541 -0.968004 2 2 2 0.178404 0.416679 0.891376
-10.103900 -0.152742 -0.560080 1 1 1 0.137493 -0.289717 0.947185
-11.844200 1.421590 -2.072420 15 15 15 0.200948 -0.655710 0.727780
-11.587100 2.255890 -0.562795 0 0 0 0.168428 -0.936231 0.308389
-11.715800 3.580860 -2.080720 24 24 24 -0.079761 -0.000317 0.996814
-11.124200 3.476440 -0.485934 2 2 2 0.643207 0.122099 0.755894
-11.730500 4.834750 -2.222270 7 7 7 -0.000022 -0.968479 0.249094
-10.296600 8.564090 -1.150440 57 57 57 0.522480 0.520307 0.675496
-11.119000 9.130220 -0.995293 58 58 58 0.519201 0.334555 0.786450
-11.677500 11.507100 -2.434270 37 37 37 0.053534 -0.762581 0.644673
-11.814400 13.371500 -1.204510 7 7 7 -0.108006 -0.427959 0.897322
-10.965200 15.628100 -0.625396 10 10 10 -0.202605 -0.978833 -0.028924
-11.428300 16.200500 -0.563419 1 1 1 -0.108807 -0.889538 -0.443716
-10.906300 15.668400 1.686560 7 7 7 -0.562941 -0.825347 0.043581
-10.823500 15.715500 3.667230 10 10 10 -0.426680 -0.903592 0.038278
-10.703500 15.751500 5.683700 7 7 7 -0.410822 -0.909052 0.069633
-10.614700 15.789100 7.666000 6 6 6 -0.490105 -0.870284 0.049015
-10.613600 15.829000 9.424520 6 6 6 -0.644073 -0.763775 0.042636
-10.552600 15.908000 11.433700 6 6 6 -0.326233 -0.944967 0.024703
-10.463900 15.946400 13.437200 5 5 5 -0.601217 -0.799008 -0.011120
-10.358100 16.000099 15.653200 5 5 5 -0.290723 -0.956225 0.033371
-10.300600 16.042400 17.428400 8 8 8 -0.374346 -0.922007 -0.098834
-10.189500 16.087999 19.435699 5 5 5 -0.456623 -0.881166 0.122642
-10.106100 16.133900 21.431299 5 5 5 -0.436350 -0.899388 -0.026449
-9.928790 16.162701 23.665100 5 5 5 -0.571531 -0.819697 0.038066
-9.951830 16.198299 25.435900 4 4 4 -0.561434 -0.826145 0.047706
-9.854780 16.265400 27.835699 5 5 5 -0.577330 -0.815780 0.034549
-10.878200 18.775499 -0.674663 8 8 8 0.176236 -0.984296 -0.010084
-10.914100 18.782499 -0.314837 7 7 7 0.130873 -0.991378 0.006426
-10.968900 18.821800 1.664140 8 8 8 0.019505 -0.999617 0.019655
-10.663100 18.725401 4.186190 6 6 6 -0.035216 -0.950864 -0.307599
-9.901330 18.910101 -1.288740 60 60 60 0.907573 0.080756 0.412057
-10.496500 20.802099 0.472787 9 9 9 0.978766 0.042622 0.200502
-10.944500 18.833200 2.153560 7 7 7 0.037564 -0.999003 0.024125
-10.869800 18.868999 3.663000 9 9 9 0.129733 -0.991273 -0.023376
-10.714500 21.300900 -0.781834 7 7 7 0.924916 0.299095 -0.234676
-11.005400 21.946899 0.669517 8 8 8 -0.167872 -0.981389 0.093243
-11.015000 21.965401 1.660600 8 8 8 0.018996 -0.999634 0.019271
-10.969800 22.013000 3.424570 9 9 9 -0.136078 -0.990001 -0.037172
-9.958220 25.633600 0.711011 5 5 5 0.961278 0.219142 0.167097
-10.186000 26.316799 1.822450 9 9 9 0.979058 0.151590 -0.135893
-10.796100 28.213200 -1.000980 10 10 10 0.081250 -0.996668 0.007112
-10.926800 28.232300 0.052071 9 9 9 0.047124 -0.998883 0.003366
-10.861400 28.273500 1.782210 10 10 10 0.030351 -0.999243 0.024344
-10.835000 28.310801 3.425530 9 9 9 0.125591 -0.990357 0.058471
-9.858690 29.598101 3.271500 4 4 4 0.907513 -0.419977 0.006320
-11.172300 33.823200 3.124380 4 4 4 0.768585 0.139837 0.624278
-11.335600 34.905899 3.082040 4 4 4 -0.142600 -0.289781 -0.946410
-8.881340 -24.885599 3.237530 9 9 9 -0.025537 0.996519 -0.079362
-8.951260 -24.880800 3.424680 9 9 9 -0.024241 0.991921 -0.124521
-8.251520 -22.756901 3.303880 0 0 0 0.133298 0.436570 0.889741
-9.835800 -16.723200 35.253201 11 11 11 -0.034521 0.997743 -0.057598
-9.768520 -16.704901 36.281502 5 5 5 0.000962 0.999140 0.041442
-9.835840 -16.677799 38.035198 7 7 7 -0.024329 0.998277 -0.053392
-9.842580 -16.643299 40.830502 6 6 6 -0.040262 0.993591 -0.105618
-9.603030 -16.618700 41.878399 5 5 5 -0.046014 0.997186 0.059188
-9.830100 -16.576799 43.597301 5 5 5 -0.043939 0.992554 -0.113606
-9.796750 -16.523399 46.414600 8 8 8 -0.004337 0.994995 -0.099829
-9.805370 -16.492001 47.495098 9 9 9 0.007015 0.997438 0.071195
-9.781190 -16.454100 50.273102 3 3 3 0.020828 0.997201 0.071804
-9.624390 -16.380501 52.036999 21 21 21 -0.026841 0.992453 -0.119653
-9.708080 -16.335699 54.814098 16 16 16 -0.010952 0.992456 -0.122110
-9.636550 -16.309900 55.883099 12 12 12 0.010121 0.995314 0.096160
-9.847740 -16.292299 57.592899 15 15 15 -0.021277 0.992112 -0.123537
-9.840400 -16.237000 60.414902 11 11 11 -0.031482 0.995110 -0.093621
-9.769280 -16.121500 61.886200 4 4 4 -0.006251 0.999879 0.014234
-9.741260 -16.122601 64.205597 5 5 5 -0.030803 0.999309 -0.020798
-9.844200 -15.975800 65.573097 2 2 2 -0.008940 0.998981 -0.044239
-9.770900 -15.993400 67.976997 10 10 10 -0.005486 0.999685 -0.024480
-9.319360 -15.924300 69.874001 32 32 32 0.006554 0.996577 0.082410
-9.706530 -14.573400 13.882600 1 1 1 0.097183 -0.280178 -0.955016
-9.589610 -15.138900 68.987099 9 9 9 -0.053941 0.490070 -0.870012
-9.210790 -11.846400 -0.812798 3 3 3 0.608336 0.138548 -0.781493
-9.232290 -11.843700 -0.572244 3 3 3 0.597232 -0.043590 -0.800883
-9.623910 -11.788800 1.674220 7 7 7 -0.301596 0.827287 -0.473958
-9.615420 -11.817700 13.162200 1 1 1 -0.070965 0.448003 -0.891211
-9.843560 -10.671500 -1.709000 7 7 7 0.014401 0.983755 0.178940
-8.362710 -11.156700 0.723330 0 0 0 -0.750566 0.660433 0.021907
-9.129680 -11.096800 2.432970 6 6 6 -0.395196 0.730873 -0.556457
-7.879940 -10.495800 12.942700 1 1 1 -0.750479 0.590821 -0.296162
-9.846810 -10.931200 13.482700 1 1 1 -0.035777 0.330512 -0.943123
-9.822960 -9.452600 19.031000 47 47 47 0.003231 0.950796 0.309802
-9.614640 -9.680390 19.683201 27 27 27 -0.006142 0.933668 0.358087
-9.653440 -10.860700 22.225500 1 1 1 -0.025834 0.909031 0.415927
-9.849350 -8.488630 -1.712740 22 22 22 -0.070856 0.308504 0.948580
-9.624850 -8.509710 -0.418028 8 8 8 -0.055141 0.998425 0.010380
-9.759750 -8.243870 2.183280 7 7 7 -0.006573 0.854566 -0.519301
-9.760790 -8.017340 3.653040 20 20 20 -0.154269 0.827745 0.539480
-9.830910 -8.585220 5.681220 42 42 42 -0.030210 0.978971 -0.201748
-9.646340 -8.172210 7.685430 18 18 18 -0.086873 0.981813 -0.168807
-9.627180 -8.136730 9.434910 20 20 20 0.005425 0.999893 -0.013574
-9.849430 -8.178380 11.769300 3 3 3 -0.024288 0.999670 0.008387
-9.826800 -8.874640 13.731200 1 1 1 0.921415 -0.139418 -0.362708
-9.825470 -8.764260 17.113100 21 21 21 -0.012117 0.941572 0.336592
-9.808290 -9.064890 17.787500 22 22 22 -0.011904 0.941292 0.337385
-9.769360 -7.023710 -1.814380 36 36 36 0.008191 0.046739 0.998874
-9.824380 -7.122610 3.482160 8 8 8 0.095508 0.423870 -0.900673
-9.802710 -4.734170 -1.941620 38 38 38 -0.017652 0.153545 0.987984
-9.788480 -3.167200 -2.053640 17 17 17 -0.003096 -0.016023 0.999867
-9.799570 -0.777685 -1.013350 0 0 0 -0.023359 -0.417505 0.908374
-9.622600 -0.157492 -0.578922 1 1 1 0.951615 -0.072239 -0.298682
-9.624700 1.179640 -2.056610 24 24 24 -0.033298 0.077868 0.996407
-9.825280 2.882220 -2.123650 16 16 16 0.191844 0.064125 0.979328
-9.813750 5.017370 -2.025600 7 7 7 0.039336 -0.943979 0.327653
-8.992360 5.771640 -0.571697 1 1 1 0.342479 -0.559547 0.754729
-9.761780 8.098570 -1.069880 47 47 47 0.555413 0.590038 0.585979
-9.809690 8.985710 -1.924450 59 59 59 0.463444 0.306542 0.831416
-9.807450 12.012700 -2.377870 55 55 55 0.348894 -0.937118 -0.009098
-9.425390 11.603200 -0.574827 3 3 3 -0.164437 -0.915064 -0.368264
-9.375680 14.495800 -1.180100 23 23 23 0.871381 -0.203342 0.446483
-9.819500 14.492900 -0.578433 7 7 7 0.594421 -0.796526 0.110502
-9.767840 14.573200 1.429470 7 7 7 0.544169 -0.837870 0.043053
-9.723700 14.664600 3.671870 7 7 7 0.531161 -0.846731 -0.030242
-9.714190 14.728800 5.663610 6 6 6 0.519375 -0.850222 0.085864
-9.652450 14.795800 7.436860 5 5 5 0.590369 -0.807131 0.002116
-9.441810 16.344999 -1.163460 33 33 33 -0.557562 -0.390303 -0.732658
-9.567620 16.230301 0.442698 4 4 4 0.925049 0.080330 0.371256
-9.539960 16.276800 2.171020 10 10 10 0.068407 -0.002826 -0.997653
-9.499490 16.298800 3.687630 18 18 18 0.409114 0.189117 -0.892671
-9.161850 14.847200 5.678370 5 5 5 0.811068 -0.542365 0.219110
-9.650910 14.832700 8.485610 8 8 8 0.265758 -0.963913 0.015606
-9.624750 14.872700 9.432620 6 6 6 0.070731 -0.991217 0.111737
-9.516620 14.949800 11.428500 6 6 6 0.725430 -0.687984 0.020705
-9.840180 15.498700 13.856900 6 6 6 -0.554117 -0.822214 0.130074
-9.786430 15.541600 15.573300 5 5 5 -0.358992 -0.872325 0.331926
-9.737260 15.592000 17.434401 5 5 5 -0.471930 -0.850991 -0.230426
-9.312170 15.246800 19.656099 5 5 5 0.773862 -0.632507 0.032747
-9.232580 15.330500 21.670799 9 9 9 0.471796 -0.853388 -0.221670
-9.843460 16.202999 25.236500 4 4 4 -0.595682 -0.802124 0.041941
-9.824080 16.216700 25.894501 4 4 4 -0.604047 -0.795639 0.045673
-9.829320 16.269800 27.803200 4 4 4 -0.590759 -0.805978 0.037450
-9.782220 16.328600 29.998699 3 3 3 -0.506663 -0.855612 0.105930
-9.726240 16.372299 31.592400 4 4 4 -0.451512 -0.892198 0.010940
-9.636330 16.408100 33.536701 4 4 4 -0.481456 -0.859431 0.171985
-9.582060 16.452200 36.514702 4 4 4 -0.407803 -0.912000 -0.044198
-8.530790 16.051399 38.251099 8 8 8 0.098802 -0.989632 0.104244
-9.436260 16.532000 39.901199 3 3 3 -0.202411 -0.979286 -0.005369
-8.691720 15.961600 41.561501 3 3 3 0.230120 -0.875581 -0.424738
-8.416840 16.223400 43.733398 3 3 3 0.040444 -0.998253 0.043061
-8.319890 16.230801 48.174301 3 3 3 0.064505 -0.997722 0.019756
-8.241390 16.325500 51.556801 7 7 7 0.074379 -0.997213 -0.005860
-8.136770 16.319201 54.877602 7 7 7 0.006359 -0.212429 -0.977156
-7.869290 16.553600 58.182701 5 5 5 -0.006131 -0.998685 0.050907
-8.030980 16.621401 61.320999 4 4 4 0.042483 -0.998244 0.041273
-8.012320 16.582600 61.457401 5 5 5 0.058708 -0.997694 0.034049
-9.168860 17.673100 -1.320150 9 9 9 0.688561 0.171109 0.704703
-9.682480 17.003099 4.185960 21 21 21 -0.056664 0.029828 -0.997948
-9.501330 17.130100 6.622830 23 23 23 0.907717 0.362619 -0.211085
-9.470890 17.176901 7.423480 20 20 20 0.907380 0.170066 -0.384368
-8.002310 18.235701 11.858800 0 0 0 0.346737 -0.119101 -0.930370
-9.604970 17.462099 16.418400 1 1 1 0.792401 0.331485 -0.512072
-7.958750 16.870800 41.492199 8 8 8 0.070543 -0.082573 -0.994085
-8.107130 16.843300 51.550800 5 5 5 -0.188476 -0.980772 0.050623
-7.863780 16.921101 61.465500 7 7 7 -0.078883 -0.993409 0.083159
-9.850000 18.984100 1.137150 6 6 6 0.279326 -0.959916 -0.023198
-9.837840 18.902300 1.676970 11 11 11 0.121722 -0.992508 -0.010555
-9.827230 18.880301 3.685650 12 12 12 0.065216 -0.983869 -0.166580
-9.369280 19.466700 8.063250 15 15 15 0.339941 0.182380 -0.922593
-9.403990 18.854401 17.323200 25 25 25 0.115941 0.169544 -0.978679
-9.832680 21.320999 -0.784646 6 6 6 0.928771 0.078783 0.362186
-9.802200 21.325399 0.239477 7 7 7 -0.681281 -0.725032 0.100919
-8.210250 24.445299 -0.822037 3 3 3 0.478157 -0.279557 -0.832595
-8.239060 24.327499 -0.285083 4 4 4 0.376073 -0.019134 -0.926392
-8.637050 24.096001 4.035040 22 22 22 -0.275388 0.046253 -0.960220
-8.370790 25.239901 -0.805035 5 5 5 -0.812633 -0.557082 0.171139
-8.679190 25.946800 3.190190 2 2 2 -0.014650 -0.058462 -0.998182
-9.791790 29.894600 3.179980 5 5 5 0.928436 -0.369712 0.036320
-9.785880 33.544399 3.207660 5 5 5 -0.095531 -0.052714 -0.994030
-9.110620 36.271900 -1.329820 8 8 8 0.127381 -0.963097 0.237103
-8.958190 35.658901 3.041100 7 7 7 -0.051357 -0.456919 -0.888024
-6.744940 -25.115700 4.537630 12 12 12 -0.047117 0.990387 0.130051
-6.599960 -25.079901 5.468910 9 9 9 -0.056025 0.965228 0.255337
-7.703290 -16.693899 34.740700 1 1 1 0.058670 0.996171 -0.064812
-7.802730 -16.687901 36.233299 4 4 4 0.074839 0.997092 0.014380
-7.801000 -16.631300 37.612301 13 13 13 0.057824 0.998116 -0.020536
-7.767230 -16.616899 40.372200 1 1 1 0.048641 0.996792 -0.063561
-7.818790 -16.513399 41.458801 20 20 20 0.002004 0.999662 -0.025922
-7.830480 -16.433100 43.431099 12 12 12 -0.024022 0.998360 -0.051961
-7.642010 -16.464800 46.023499 15 15 15 0.042608 0.996298 -0.074659
-7.677820 -16.434099 47.473701 19 19 19 0.050241 0.998081 0.036189
-7.830460 -16.280100 49.471199 18 18 18 0.000084 0.999836 -0.018106
-7.795650 -16.262100 51.424801 9 9 9 -0.014579 0.998975 -0.042850
-7.745060 -16.211800 53.653099 5 5 5 -0.015300 0.999861 -0.006548
-7.647470 -16.168900 56.131500 4 4 4 -0.036151 0.999326 0.006347
-7.824410 -16.172701 57.458599 3 3 3 -0.001949 0.999975 -0.006740
-7.700250 -16.072800 59.534100 1 1 1 0.003580 0.999710 -0.023822
-7.739110 -16.052299 61.649502 2 2 2 -0.037280 0.999217 0.013230
-7.637430 -15.999500 64.890701 6 6 6 -0.029159 0.992606 -0.117828
-7.745450 -16.018700 65.456299 7 7 7 -0.077889 0.985022 -0.153836
-7.848010 -15.777500 67.427696 17 17 17 -0.086791 0.994425 -0.059879
-6.499950 -15.097800 14.243200 2 2 2 -0.100747 -0.320424 -0.941901
-7.182960 -14.822300 30.326599 33 33 33 -0.019758 0.921632 0.387562
-6.352120 -15.136200 68.902901 12 12 12 0.073448 0.688017 -0.721968
-7.844750 -10.686300 -1.755530 4 4 4 0.858742 0.365911 0.358708
-7.637310 -10.543600 0.465163 0 0 0 -0.636840 0.758901 0.136026
-7.849180 -10.780500 2.281520 4 4 4 -0.394308 0.763473 -0.511498
-6.011130 -9.202220 11.327800 1 1 1 0.889373 0.030650 0.456154
-7.715360 -10.494400 12.939600 1 1 1 -0.724100 0.576816 -0.378103
-7.775570 -10.918100 13.582500 1 1 1 0.084355 0.197030 -0.976762
-7.671520 -9.436120 18.883101 6 6 6 0.003985 0.941679 0.336490
-7.582530 -9.669660 19.695299 20 20 20 0.011506 0.947663 0.319064
-6.368920 -10.582500 21.728500 26 26 26 -0.013741 0.919897 0.391920
-7.841750 -8.436660 -1.763920 38 38 38 -0.092608 -0.002659 0.995699
-7.390090 -7.448100 -0.558067 9 9 9 0.845566 0.533592 0.017243
-7.673480 -9.068860 2.777360 7 7 7 0.409607 0.048888 0.910951
-7.837450 -8.586360 5.406310 50 50 50 -0.024828 0.979315 -0.200813
-7.606960 -8.547990 5.663960 57 57 57 -0.020882 0.978193 -0.206646
-7.666140 -8.172100 8.347500 0 0 0 -0.042812 0.997078 0.063259
-7.833720 -8.123240 9.475630 3 3 3 -0.037199 0.999155 -0.017506
-7.815240 -8.167520 11.722000 4 4 4 -0.005147 0.999985 0.001762
-7.727490 -8.474400 15.210500 22 22 22 -0.029825 0.994864 0.096722
-7.848110 -8.739800 17.113001 26 26 26 -0.010575 0.944090 0.329517
-7.631820 -9.032340 17.735800 26 26 26 -0.001479 0.944886 0.327395
-7.829090 -7.134140 -1.826730 40 40 40 -0.006320 0.048149 0.998820
-6.177800 -5.352230 0.371529 24 24 24 -0.265074 0.796077 -0.544056
-7.468820 -5.617800 2.750290 10 10 10 0.064149 0.684192 0.726475
-7.655280 -6.960790 3.675110 1 1 1 -0.105342 -0.021054 -0.994213
-7.794360 -5.029960 -1.912700 31 31 31 0.015226 0.081219 0.996580
-6.651250 -4.898050 0.717722 30 30 30 0.018185 0.879179 -0.476145
-6.312940 -4.748380 2.313610 19 19 19 0.570955 0.787463 0.232188
-7.846080 -3.129230 -2.044480 18 18 18 -0.004800 -0.013259 0.999901
-7.837570 -1.120340 -2.039160 19 19 19 -0.126477 -0.209919 0.969504
-7.825020 0.879484 -2.046320 18 18 18 -0.069116 0.329837 0.941505
-7.842770 2.981630 -2.116390 14 14 14 -0.005882 0.055041 0.998467
-7.806020 4.859710 -2.235640 18 18 18 0.068857 -0.332850 0.940462
-7.754270 6.873800 -2.414120 22 22 22 0.114532 0.439200 0.891059
-7.738070 11.578300 -1.713440 43 43 43 -0.305034 -0.938314 -0.162853
-7.682270 11.525500 -0.568794 91 91 91 -0.148181 -0.986712 -0.066652
-7.845560 13.159000 -1.923110 29 29 29 0.051635 -0.394246 0.917553
-6.663830 14.547100 -0.564427 8 8 8 0.396087 -0.885858 0.241601
-6.654550 14.621500 1.425350 8 8 8 0.560372 -0.828211 -0.007138
-7.805850 14.722800 4.231420 14 14 14 -0.014824 -0.175200 -0.984421
-6.571050 14.777800 5.424420 7 7 7 0.251146 -0.956598 0.147803
-6.162180 15.630500 -0.580508 17 17 17 0.956067 -0.012277 0.292892
-6.439180 16.453899 -0.463793 5 5 5 0.937580 0.275034 0.212837
-6.101210 15.360400 1.435570 8 8 8 0.965908 -0.258873 -0.002543
-7.689310 14.862600 4.205540 6 6 6 0.032950 -0.759726 -0.649408
-7.764540 15.876300 5.535630 11 11 11 -0.061669 -0.858243 0.509525
-7.726350 14.929700 8.585520 8 8 8 -0.006435 -0.946821 -0.321695
-7.806780 14.900400 9.431510 9 9 9 -0.014613 -0.985250 -0.170498
-7.612650 15.074000 12.684800 13 13 13 0.024085 -0.574654 -0.818042
-7.816860 15.052400 13.424900 18 18 18 0.026914 -0.966400 -0.255628
-7.831390 15.214100 17.371000 11 11 11 0.056245 -0.996601 -0.060186
-7.805940 15.211300 17.653500 5 5 5 0.024083 -0.805087 -0.592668
-7.509650 16.314100 19.587000 7 7 7 -0.092633 -0.970726 0.221608
-7.810670 15.407100 21.679899 8 8 8 -0.029591 -0.223175 -0.974329
-7.818440 15.564400 23.656700 7 7 7 0.020783 -0.999780 0.002948
-7.783930 15.591600 25.665400 8 8 8 0.017316 -0.999643 0.020358
-7.830430 15.632800 27.674400 10 10 10 0.026665 -0.999562 0.012822
-7.387510 16.034901 29.787701 4 4 4 0.077686 -0.970158 0.229690
-7.634810 15.780000 31.774900 10 10 10 -0.103172 -0.598988 -0.794084
-7.708800 15.826300 35.125000 11 11 11 -0.040653 -0.456851 -0.888614
-7.786200 15.783400 35.443100 4 4 4 -0.070476 -0.742910 -0.665671
-7.614880 16.038200 38.390202 7 7 7 -0.075498 -0.427027 -0.901082
-7.745380 16.634300 40.817799 9 9 9 0.016043 -0.934443 -0.355751
-7.785510 16.080900 41.673698 8 8 8 0.135799 -0.594500 -0.792546
-7.738650 16.031500 45.031799 4 4 4 0.212979 -0.924950 -0.314814
-6.854850 16.465401 47.063599 3 3 3 -0.032711 -0.999228 -0.021736
-7.648620 16.257500 48.272800 6 6 6 0.052326 -0.997818 -0.040259
-6.741120 16.303400 49.445599 6 6 6 -0.022996 -0.999612 -0.015722
-7.733140 16.326300 51.585800 15 15 15 0.074157 -0.995559 0.057995
-7.749050 16.303101 54.886700 7 7 7 0.005127 -0.216698 -0.976225
-7.834790 16.480801 58.181801 5 5 5 0.032348 -0.998044 0.053496
-6.617210 16.701099 60.792900 1 1 1 0.017811 -0.997861 0.062905
-7.721940 16.614700 61.462002 7 7 7 0.048153 -0.998184 0.036184
-6.367390 16.800900 64.690804 6 6 6 0.039964 -0.999085 0.015208
-7.619950 16.773399 68.086601 7 7 7 0.022948 -0.999526 -0.020507
-6.377630 16.819201 71.311501 8 8 8 0.027473 -0.999492 0.016137
-6.253390 16.801100 77.969398 6 6 6 0.074240 -0.997228 0.004929
-7.211600 18.775200 -1.472660 11 11 11 0.952636 -0.146989 -0.266231
-7.320730 18.706600 -0.577818 5 5 5 -0.242358 -0.804749 0.541886
-7.128760 18.554300 3.784340 8 8 8 0.293810 -0.809601 -0.508155
-7.836040 16.871799 8.094590 21 21 21 0.004957 -0.104880 -0.994473
-6.053200 17.069799 15.341500 2 2 2 0.853830 0.228769 -0.467589
-7.606840 16.919600 17.286699 45 45 45 -0.037339 -0.044659 -0.998304
-7.833810 16.878901 41.505501 8 8 8 0.122449 -0.019170 -0.992290
-7.557660 16.880301 51.539398 5 5 5 -0.132177 -0.960210 0.246019
-6.359100 16.855801 54.801800 7 7 7 -0.001339 -0.147520 -0.989058
-7.815960 16.873600 61.465302 7 7 7 -0.058992 -0.995347 0.076186
-7.410110 16.874901 64.755699 5 5 5 0.000203 -0.999748 0.022437
-7.506400 16.860800 68.073700 8 8 8 -0.003416 -0.999832 -0.017988
-6.407070 16.897400 71.265297 5 5 5 0.016589 -0.999340 0.032301
-6.406810 16.952299 77.912300 10 10 10 0.043839 -0.998830 0.020420
-6.865590 17.546301 94.418900 21 21 21 0.006111 -0.999352 0.035463
-7.596830 19.412100 -0.678937 11 11 11 -0.334007 -0.783074 0.524627
-7.847710 20.126600 0.021546 6 6 6 -0.479825 -0.771593 -0.417627
-6.665060 19.122999 1.421620 75 75 75 0.980413 0.187409 -0.060559
-7.332280 19.084000 3.865770 4 4 4 -0.489104 -0.124334 -0.863318
-6.889780 22.261900 0.002012 0 0 0 -0.922030 -0.372072 0.106879
-7.233000 21.622601 3.270390 0 0 0 0.751079 0.123783 0.648504
-7.232980 22.960501 -0.908242 3 3 3 0.924323 0.272750 -0.266898
-7.715200 23.066799 1.113220 1 1 1 -0.619734 -0.784803 -0.003835
-6.505960 22.833799 3.232930 7 7 7 0.997886 0.027963 -0.058666
-6.784420 25.382700 -0.871432 9 9 9 0.770395 -0.119488 -0.626270
-6.824410 25.403000 -0.334932 15 15 15 0.646647 -0.062603 -0.760216
-6.873630 25.454500 2.426220 1 1 1 -0.130041 -0.920278 -0.369023
-6.989550 28.584200 -0.241545 2 2 2 -0.133661 -0.298862 -0.944890
-6.921080 28.614201 2.370770 2 2 2 0.086957 -0.002050 -0.996210
-6.571890 36.738201 1.191430 1 1 1 -0.591514 -0.771082 -0.235675
-6.900740 38.031300 -1.266190 5 5 5 -0.850805 -0.443257 0.282231
-7.100390 38.043499 -0.200938 12 12 12 -0.863879 -0.411829 0.290016
-6.872240 37.333401 2.407260 9 9 9 -0.682935 -0.689215 -0.242038
-7.038900 41.141499 -1.418520 9 9 9 0.987379 -0.051146 -0.149889
-7.041870 41.157299 -0.578918 24 24 24 0.981229 -0.028731 -0.190694
-6.948170 41.227600 2.549770 13 13 13 -0.948864 -0.206183 0.239053
-4.884570 -15.983400 32.882301 18 18 18 -0.160623 0.981158 0.107373
-5.844810 -16.693100 35.149700 4 4 4 -0.393868 0.900279 -0.185382
-5.818780 -16.620701 36.237499 26 26 26 -0.353343 0.932455 0.075343
-5.759270 -16.652500 37.910000 2 2 2 -0.421471 0.904934 -0.058803
-5.643760 -16.593599 40.726898 3 3 3 -0.181725 0.965344 -0.187318
-5.844430 -16.567400 41.808601 5 5 5 0.000669 0.995272 0.097121
-5.827430 -16.521900 43.517200 7 7 7 0.039931 0.994144 -0.100419
-5.830930 -16.470800 46.360802 10 10 10 0.002821 0.996940 -0.078119
-5.831530 -16.409599 47.426601 21 21 21 -0.023137 0.999126 0.034802
-5.750110 -16.184299 49.443001 5 5 5 -0.113077 0.993429 -0.017664
-5.795430 -16.314800 51.929501 27 27 27 0.017470 0.996555 -0.081068
-5.613770 -16.325100 54.722599 5 5 5 0.036486 0.984763 -0.170029
-5.815840 -16.246700 55.815399 19 19 19 -0.007454 0.998975 0.044643
-5.806540 -16.222900 57.512600 17 17 17 -0.004451 0.996196 -0.087031
-5.810070 -16.236700 60.303600 3 3 3 -0.011069 0.950923 -0.309229
-5.833200 -16.049900 61.779598 4 4 4 -0.057091 0.997537 0.040740
-5.813950 -16.062500 64.047699 8 8 8 -0.024573 0.998752 -0.043477
-5.673880 -15.993600 66.035103 8 8 8 -0.009330 0.999582 -0.027349
-5.838410 -15.949200 67.862701 7 7 7 -0.031853 0.978606 -0.203263
-5.040430 -15.436600 69.614601 6 6 6 0.010195 0.970590 -0.240524
-4.850460 -13.429600 2.155770 0 0 0 0.492916 -0.040352 -0.869141
-4.161480 -13.773300 13.072300 1 1 1 0.117664 -0.019943 -0.992853
-5.842310 -15.059200 14.248800 2 2 2 -0.157829 -0.285011 -0.945441
-5.289830 -15.160500 68.874298 16 16 16 0.054276 0.644142 -0.762978
-5.410420 -12.008600 -1.770750 14 14 14 -0.518098 0.848583 0.107154
-5.431660 -11.975600 -0.576416 7 7 7 -0.254429 0.966856 -0.021353
-5.400740 -12.069000 1.535000 12 12 12 -0.422556 0.900926 0.098883
-4.215550 -11.923200 13.030100 1 1 1 -0.273010 0.256633 -0.927149
-5.289250 -12.332700 13.703300 1 1 1 -0.357908 0.044408 -0.932700
-4.911630 -11.085900 -1.798420 3 3 3 -0.123959 0.264818 0.956298
-4.845990 -10.648300 -0.266998 8 8 8 0.970263 -0.067229 -0.232530
-4.962760 -11.017500 1.611370 0 0 0 0.896660 -0.319824 -0.306125
-4.354520 -9.179140 8.781090 0 0 0 0.983406 -0.003623 -0.181383
-4.100450 -9.332930 10.444600 0 0 0 0.984960 -0.053461 -0.164305
-4.508070 -10.622200 13.089000 1 1 1 0.140677 0.090487 -0.985912
-4.712400 -11.028400 13.656300 1 1 1 -0.483249 0.136920 -0.864710
-5.798840 -9.419190 18.910700 17 17 17 -0.017246 0.937884 0.346519
-5.771690 -9.645280 19.686399 16 16 16 -0.020236 0.946552 0.321915
-5.838950 -10.777100 22.189501 10 10 10 0.004265 0.919391 0.393322
-5.840360 -8.169520 -1.530160 4 4 4 -0.186958 0.740628 0.645382
-5.837030 -8.122060 -0.564454 1 1 1 -0.245110 0.969312 0.018874
-5.833290 -8.074910 1.431080 1 1 1 -0.121330 0.991020 -0.056203
-5.766770 -8.026840 3.431780 74 74 74 0.628378 -0.079801 -0.773804
-5.766660 -8.539050 5.654030 56 56 56 -0.038997 0.985270 -0.166498
-5.602700 -8.231850 8.226460 2 2 2 -0.064962 0.995626 -0.067142
-5.789700 -8.172080 9.423510 0 0 0 -0.127492 0.991387 0.029977
-5.729080 -8.067460 11.642900 0 0 0 -0.136491 0.988922 -0.058346
-5.839370 -8.425900 15.185200 24 24 24 -0.000684 0.989867 0.141998
-5.775650 -8.704690 17.084400 29 29 29 -0.005176 0.939178 0.343391
-5.763050 -9.001460 17.735201 26 26 26 -0.012474 0.942680 0.333465
-5.849550 -7.163810 -1.820170 33 33 33 0.020679 0.022787 0.999526
-5.609050 -7.012990 0.885281 7 7 7 0.709736 0.017760 -0.704244
-5.847310 -7.126560 3.380010 11 11 11 0.868858 -0.015386 -0.494822
-5.751350 -7.118640 3.426810 18 18 18 0.867436 0.056853 -0.494290
-5.820920 -5.028970 -1.912580 51 51 51 -0.087108 0.201933 0.975518
-5.603560 -5.030350 0.478951 21 21 21 -0.146619 0.896320 -0.418465
-5.827710 -4.935500 2.217450 36 36 36 -0.407683 0.775298 -0.482398
-5.842670 -2.821320 -2.030580 24 24 24 -0.134240 0.194795 0.971614
-5.505170 -3.163600 -0.421408 65 65 65 0.606677 -0.776904 0.168415
-5.836790 -1.120600 -2.033820 20 20 20 -0.003967 0.003494 0.999986
-5.802220 0.882399 -2.037030 19 19 19 -0.003313 0.004432 0.999985
-5.807200 3.080640 -2.113050 20 20 20 -0.002755 0.053536 0.998562
-5.811060 4.871110 -2.221920 21 21 21 -0.129356 -0.020242 0.991392
-5.427750 12.089000 -1.698970 20 20 20 -0.128505 -0.249669 -0.959767
-5.611800 11.370000 -0.519081 9 9 9 0.084645 -0.669341 -0.738118
-5.705570 13.423800 -1.885430 33 33 33 0.037357 -0.383883 0.922626
-5.801630 14.765700 4.184210 19 19 19 0.263178 -0.914947 -0.305956
-5.660600 14.961600 -1.372600 12 12 12 0.463387 -0.333705 0.820923
-3.895430 16.018999 -0.077308 0 0 0 -0.786587 -0.579731 0.212589
-5.825060 14.880000 4.165710 6 6 6 0.254279 -0.914429 -0.314900
-5.819500 15.978000 5.532830 8 8 8 0.481649 -0.871281 -0.094260
-5.804060 14.930700 8.552760 13 13 13 0.280026 -0.868815 -0.408346
-5.802330 14.925000 9.421670 7 7 7 0.032536 -0.995240 0.091860
-5.815170 15.064600 12.675300 18 18 18 0.163278 -0.977738 -0.131786
-5.800240 15.081400 13.480300 7 7 7 0.053760 -0.993894 0.096361
-5.833110 15.221500 15.424000 5 5 5 0.994967 -0.100051 0.005550
-5.824630 15.253100 17.684000 5 5 5 0.068098 -0.982839 -0.171435
-5.809160 15.324300 19.667299 4 4 4 0.989278 -0.144903 0.018235
-5.800690 15.415700 21.660500 6 6 6 0.149266 -0.975634 -0.160803
-5.824230 15.475300 23.660400 4 4 4 0.041468 -0.999040 -0.014137
-5.809420 15.551200 25.661800 4 4 4 0.054877 -0.998336 0.017738
-5.838190 15.625500 27.650801 3 3 3 0.028136 -0.999169 0.029506
-5.784360 15.719700 29.668600 4 4 4 -0.018109 -0.995789 0.089870
-5.840900 15.748800 31.435301 4 4 4 0.243875 -0.967539 0.066284
-5.654730 15.789400 33.461300 4 4 4 0.437678 -0.893538 0.100135
-5.728000 15.864700 35.585800 3 3 3 0.043449 -0.986746 -0.156345
-5.734560 15.880100 37.678101 2 2 2 0.188373 -0.938361 0.289816
-5.670840 15.951600 39.495300 3 3 3 -0.098666 -0.990158 -0.099260
-5.829170 16.073200 41.640800 11 11 11 -0.164281 -0.403612 -0.900061
-5.839380 16.225700 44.933300 9 9 9 -0.015964 -0.972952 -0.230454
-5.819000 16.292400 48.224800 7 7 7 0.014892 -0.987068 -0.159611
-5.113430 16.730400 51.199402 2 2 2 0.001309 -0.699955 -0.714186
-5.707730 16.298300 51.530899 13 13 13 -0.030683 -0.139197 -0.989789
-5.673900 16.329599 54.876202 7 7 7 0.001406 -0.189205 -0.981937
-5.752720 16.417801 58.132301 5 5 5 0.044696 -0.992779 0.111320
-4.549980 16.733999 61.376598 5 5 5 0.024466 -0.997909 0.059822
-5.504940 16.710199 61.428001 5 5 5 0.013841 -0.997943 0.062601
-4.230060 16.795601 65.466904 4 4 4 0.031982 -0.999476 -0.005032
-5.417350 16.717501 68.089699 3 3 3 0.030832 -0.999414 -0.014857
-4.131280 16.746300 71.317802 0 0 0 0.027124 -0.999413 -0.020914
-4.600720 18.815500 -0.645491 0 0 0 -0.010307 -0.946629 0.322160
-4.429240 18.113701 -0.270843 0 0 0 0.406952 -0.717805 0.564930
-5.700210 18.744801 4.071250 58 58 58 -0.127597 -0.824617 -0.551113
-4.443920 17.495800 6.067070 25 25 25 0.858942 -0.405379 -0.312867
-4.211150 16.840900 8.013260 25 25 25 0.583764 -0.381802 -0.716552
-5.170120 16.834801 12.596600 0 0 0 0.056488 0.148605 -0.987282
-5.677780 17.095800 15.341800 1 1 1 0.879444 -0.307423 0.363413
-5.806220 16.838900 17.262100 143 143 143 -0.002943 0.100799 -0.994902
-5.106660 16.966000 34.821301 3 3 3 0.412552 -0.137869 -0.900441
-5.163160 17.153200 35.425400 3 3 3 0.320403 0.195955 -0.926792
-5.210640 16.838900 41.556599 2 2 2 -0.039875 -0.102440 -0.993940
-4.458540 16.840401 48.145901 6 6 6 0.005988 0.023301 -0.999711
-4.623910 16.857901 51.459702 4 4 4 -0.017606 -0.066583 -0.997626
-4.971320 16.865200 54.815899 7 7 7 -0.023755 -0.070569 -0.997224
-4.852430 16.847000 58.086601 6 6 6 -0.036741 -0.268533 -0.962569
-4.768340 16.866699 61.409199 6 6 6 0.029849 -0.979800 0.197741
-5.704170 17.096201 64.663101 8 8 8 -0.036721 -0.998386 0.043324
-4.248190 16.868099 65.425301 8 8 8 0.022966 -0.999451 -0.023891
-4.515570 16.848499 67.963600 4 4 4 0.024743 -0.999687 -0.003706
-4.141090 16.973000 71.287003 9 9 9 0.030124 -0.998761 0.039613
-4.172930 16.914301 72.441299 5 5 5 0.027863 -0.999372 0.021907
-5.457250 17.049999 75.280899 6 6 6 0.021100 -0.999122 0.036191
-5.722300 17.132000 77.874603 8 8 8 0.014466 -0.999219 0.036760
-5.107030 17.507999 94.382698 27 27 27 0.009751 -0.999521 0.029371
-5.846150 20.620399 -0.633358 0 0 0 0.382108 -0.115974 0.916812
-5.843160 20.609800 -0.579146 0 0 0 0.315259 -0.038963 0.948205
-5.800010 18.988800 3.227710 55 55 55 -0.108893 -0.993828 -0.021171
-5.849950 18.982201 3.421500 157 157 157 -0.057205 -0.987315 -0.148109
-4.006030 21.167000 -0.205939 0 0 0 0.201210 -0.080203 -0.976259
-4.468350 23.450199 -1.392360 23 23 23 0.703725 -0.033981 0.709660
-4.509640 23.827200 0.134666 16 16 16 0.211839 -0.150050 0.965717
-4.602660 24.485300 1.980360 4 4 4 -0.853938 -0.402124 0.330281
-4.384000 24.152901 3.441570 15 15 15 -0.054982 -0.609369 -0.790978
-4.787570 26.763300 1.141660 1 1 1 0.724035 -0.376995 -0.577623
-4.858900 26.027800 3.068740 4 4 4 -0.035598 -0.154572 0.987340
-5.249570 30.453800 -0.689728 27 27 27 0.239136 -0.931465 -0.274203
-5.100830 29.809601 0.986388 9 9 9 0.292791 -0.936932 -0.190872
-5.403460 29.560200 3.074900 0 0 0 0.051686 -0.334084 0.941125
-5.509630 34.265800 2.972740 27 27 27 -0.036170 -0.465410 -0.884356
-5.145080 36.371799 -1.317740 40 40 40 -0.338300 -0.937862 0.077259
-5.127300 36.242901 0.204417 7 7 7 -0.676471 -0.726057 -0.123403
-5.700060 35.736000 2.906210 16 16 16 -0.403213 -0.657655 -0.636325
-5.276790 39.817299 2.869050 52 52 52 0.406416 0.113371 -0.906627
-3.224810 -19.876200 40.889301 25 25 25 0.192526 0.823870 -0.533078
-3.241630 -19.828100 42.789902 13 13 13 -0.507632 -0.467767 -0.723535
-3.238930 -19.814199 43.466999 13 13 13 -0.664936 -0.457965 -0.590024
-1.859080 -19.715599 47.331100 7 7 7 -0.101962 0.994736 -0.010180
-2.998940 -19.775101 52.974499 2 2 2 -0.068314 0.997186 -0.030887
-2.991890 -19.735001 54.724899 13 13 13 -0.113048 0.992674 -0.042645
-2.881510 -19.683800 55.827702 14 14 14 -0.095714 0.995360 -0.009881
-2.857600 -19.695299 57.505798 4 4 4 -0.129155 0.987907 -0.085781
-2.992060 -19.591000 60.323799 6 6 6 -0.107774 0.994175 -0.000272
-1.997320 -19.428200 63.284302 4 4 4 -0.030969 0.999462 -0.010768
-3.844340 -15.967700 32.878700 18 18 18 0.097430 0.991738 0.083451
-3.711270 -15.946600 33.665001 18 18 18 -0.013140 0.999689 -0.021202
-3.784970 -15.905800 35.768501 15 15 15 -0.005386 0.999772 -0.020640
-3.796140 -15.867100 37.643101 15 15 15 -0.008036 0.999747 -0.021006
-3.778610 -15.800800 40.812500 14 14 14 -0.327023 0.944547 0.029790
-3.501370 -15.778800 41.683498 10 10 10 -0.304344 0.952434 0.015605
-3.676660 -15.569200 51.168400 1 1 1 -0.362100 0.932138 0.001465
-3.639240 -15.586000 51.545300 3 3 3 -0.326964 0.944909 0.015548
-3.664090 -15.523300 54.612301 1 1 1 -0.356680 0.933617 -0.033731
-3.356330 -15.526500 56.121101 1 1 1 -0.310014 0.950362 -0.026514
-3.273730 -15.429100 57.580799 3 3 3 -0.323485 0.945976 -0.022048
-2.873460 -16.614000 66.159897 14 14 14 0.348895 0.933532 -0.082407
-3.841420 -15.432400 68.850403 14 14 14 -0.199370 0.956815 -0.211560
-3.600150 -13.702000 13.068400 2 2 2 0.033370 -0.073805 -0.996714
-3.816940 -14.378300 13.533700 1 1 1 -0.129124 -0.185644 -0.974096
-2.756770 -13.883700 28.580200 3 3 3 -0.031472 0.904759 0.424759
-2.457300 -14.567800 29.883900 27 27 27 -0.046218 0.920726 0.387462
-3.849690 -15.143400 68.836998 13 13 13 -0.373550 0.886882 -0.271847
-3.838130 -11.669200 -1.772710 24 24 24 -0.128893 0.249136 -0.959853
-3.839450 -11.625200 -0.574432 9 9 9 -0.208283 0.978064 -0.002960
-3.842080 -12.306600 1.673070 0 0 0 -0.327387 0.373846 0.867789
-3.847070 -11.919900 13.011900 2 2 2 -0.295109 0.281885 -0.912936
-3.837450 -10.921900 -1.817160 4 4 4 0.078142 0.154237 0.984939
-3.843700 -10.942900 1.228060 5 5 5 0.878744 0.426160 -0.214933
-3.630450 -11.041400 1.703680 11 11 11 0.786562 0.616930 0.026798
-3.027480 -9.586840 10.936200 0 0 0 0.743288 0.455490 -0.489951
-3.793240 -10.993200 12.518800 0 0 0 0.951544 -0.197031 -0.236099
-3.769540 -10.751700 13.642300 1 1 1 -0.433710 -0.126554 -0.892121
-3.800960 -9.322700 18.724199 16 16 16 -0.007392 0.935744 0.352601
-2.619910 -9.892340 20.273800 5 5 5 -0.010556 0.929118 0.369632
-3.846590 -8.891640 -1.727630 3 3 3 0.153811 -0.100940 0.982931
-3.838440 -8.694980 0.633613 3 3 3 -0.107649 0.073891 -0.991439
-3.763070 -8.764320 2.768510 5 5 5 0.166535 0.111668 -0.979692
-3.769170 -8.456310 5.241860 80 80 80 -0.019419 0.997023 -0.074616
-3.662310 -8.502850 5.496560 60 60 60 0.012221 0.984568 -0.174577
-3.803640 -8.566750 8.015370 1 1 1 0.273943 0.789918 0.548620
-3.841010 -8.537720 9.432040 0 0 0 0.414869 -0.046015 -0.908717
-3.775110 -8.837040 12.532500 0 0 0 0.957452 0.061163 0.282038
-3.846650 -8.195130 13.785500 0 0 0 0.035366 0.963427 0.265628
-3.833570 -8.675790 17.040600 29 29 29 -0.004122 0.942308 0.334723
-3.843360 -8.972220 17.702900 26 26 26 -0.006760 0.943674 0.330808
-3.831640 -7.076080 -1.812940 44 44 44 -0.006856 0.039874 0.999181
-3.836240 -5.497660 1.067990 7 7 7 0.295132 0.212392 -0.931551
-3.185150 -7.120400 3.315490 13 13 13 0.972502 0.231960 -0.020861
-3.757280 -7.157930 3.887130 1 1 1 0.061041 -0.141147 -0.988105
-3.840920 -5.122860 -1.882770 36 36 36 -0.071597 0.112151 0.991108
-3.682970 -5.152660 0.587430 71 71 71 -0.212429 0.823185 -0.526536
-3.842640 -3.122590 -2.023070 24 24 24 0.069594 -0.104937 0.992041
-3.848110 -1.117780 -2.025460 20 20 20 -0.004309 0.006050 0.999972
-3.805520 0.881449 -2.030130 20 20 20 -0.003257 0.005535 0.999979
-3.805840 2.877510 -2.086640 17 17 17 -0.006981 0.053864 0.998524
-3.803820 4.881120 -2.212790 23 23 23 -0.021546 -0.168462 0.985473
-3.632490 6.833420 -1.433310 0 0 0 -0.057125 0.141993 0.988218
-2.108810 9.914010 -2.334840 43 43 43 -0.048715 0.011594 0.998745
-3.650010 11.339000 -0.820668 47 47 47 0.138162 -0.868046 -0.476873
-3.648090 11.332600 -0.460412 2 2 2 0.048145 -0.878369 -0.475552
-3.842140 12.874400 -2.262820 54 54 54 -0.012137 -0.470914 0.882096
-3.513340 14.607400 -0.570618 9 9 9 0.551510 -0.796070 0.249217
-3.515020 14.692000 1.685960 9 9 9 0.638482 -0.769612 -0.006132
-3.800830 14.808900 4.120830 10 10 10 -0.073935 -0.996915 -0.026362
-3.007000 14.864300 -0.824305 7 7 7 0.947175 -0.241592 0.210934
-3.724420 15.315800 -0.113535 0 0 0 -0.590773 -0.796966 0.125825
-3.681010 15.469500 3.098970 12 12 12 -0.559954 -0.828116 -0.025984
-3.813180 14.857000 4.114070 6 6 6 -0.112059 -0.989277 -0.093669
-3.719380 16.165600 6.630000 6 6 6 -0.206961 -0.938789 -0.275395
-3.750350 15.075200 8.486280 15 15 15 -0.272450 -0.908146 -0.317870
-3.694250 14.926800 9.425960 1 1 1 0.120671 -0.987053 -0.105665
-3.803580 15.117600 12.609200 17 17 17 -0.040965 -0.999118 -0.009215
-3.604390 15.646400 13.950800 1 1 1 -0.368283 -0.753378 0.544784
-3.844360 15.268700 17.285000 9 9 9 -0.114772 -0.983809 -0.137649
-3.809650 15.291500 17.673100 6 6 6 0.017594 -0.899496 -0.436575
-3.001080 15.379200 19.666100 5 5 5 0.824412 -0.560415 -0.079241
-3.753820 15.474000 21.584999 7 7 7 -0.074034 -0.994685 -0.071564
-3.816510 15.641900 23.656799 8 8 8 -0.001949 -0.999970 0.007530
-3.824020 15.668300 25.656200 7 7 7 0.003783 -0.999754 0.021839
-3.813060 15.705200 27.650600 7 7 7 0.008467 -0.999958 -0.003632
-3.630370 15.996600 29.504801 3 3 3 -0.143652 -0.966559 0.212433
-3.777500 15.808400 31.731001 11 11 11 0.021980 -0.776164 -0.630148
-3.837960 15.878800 35.031799 12 12 12 -0.028758 -0.825784 -0.563253
-3.623600 16.139799 36.043900 4 4 4 -0.032211 -0.995324 0.091066
-3.815400 15.953700 38.327999 10 10 10 0.065432 -0.382181 -0.921768
-3.831390 16.383301 40.012901 3 3 3 0.138402 -0.989704 0.036484
-3.760810 16.076700 41.583099 11 11 11 -0.018150 -0.173751 -0.984622
-3.666150 16.215200 44.886002 7 7 7 -0.045677 -0.974170 -0.221146
-3.834130 16.192699 48.234798 5 5 5 0.034080 -0.429080 -0.902624
-3.835820 16.567499 51.387600 3 3 3 0.000373 -0.202615 -0.979258
-3.844900 16.324200 51.484001 15 15 15 -0.012182 -0.120677 -0.992617
-3.731170 16.580799 54.734100 6 6 6 0.051598 -0.963812 -0.261543
-2.627380 16.563299 55.931198 3 3 3 0.002053 -0.999266 -0.038263
-3.849350 16.517700 58.078899 7 7 7 0.003213 -0.972008 -0.234925
-3.608080 16.705400 61.333698 5 5 5 0.016905 -0.998231 0.057001
-3.415930 16.830799 64.619003 3 3 3 0.020763 -0.999460 0.025477
-3.101230 16.788401 65.452202 2 2 2 0.049450 -0.998757 0.006213
-3.752910 16.749599 67.968201 6 6 6 0.042146 -0.999096 -0.005597
-3.392080 18.830601 -1.574570 20 20 20 -0.514258 -0.711207 0.479296
-3.382310 18.240999 3.867210 7 7 7 -0.002461 -0.428833 -0.903380
-2.038850 17.350401 11.411000 0 0 0 0.881899 -0.163241 -0.442275
-2.461830 16.887400 15.030500 0 0 0 0.952975 -0.242601 0.181616
-3.816490 16.851101 17.214899 141 141 141 -0.062373 -0.025329 -0.997731
-3.305790 17.018400 34.787399 4 4 4 -0.019649 -0.093141 -0.995459
-3.411360 16.974899 41.320801 7 7 7 -0.035040 -0.300311 -0.953198
-3.679570 16.876200 41.535702 7 7 7 -0.070369 -0.047966 -0.996367
-1.873770 16.864901 51.405300 8 8 8 -0.024259 -0.083718 -0.996194
-3.174150 16.864799 51.433899 8 8 8 -0.017344 -0.068932 -0.997471
-3.457860 16.843700 54.751202 8 8 8 0.018427 -0.611421 -0.791091
-3.085640 16.841700 58.029900 8 8 8 0.024303 -0.994579 0.101099
-3.267860 16.869600 61.323299 5 5 5 0.005144 -0.999089 0.042371
-3.467660 16.868999 64.618797 4 4 4 0.018194 -0.999384 0.030001
-3.827320 16.982500 67.935204 7 7 7 0.017706 -0.999503 0.026089
-2.402090 17.039801 69.817596 4 4 4 0.033519 -0.996638 0.074756
-3.340800 16.985300 75.256203 4 4 4 0.020864 -0.999449 0.025814
-2.073350 17.363300 77.128098 7 7 7 0.062894 -0.996473 0.055552
-3.765940 17.194500 77.897903 7 7 7 0.026453 -0.998681 0.044015
-3.610220 18.947300 -1.515310 30 30 30 -0.224208 -0.900149 0.373447
-3.660170 20.462999 -0.224849 0 0 0 -0.959784 -0.278631 -0.034353
-3.705830 20.128300 3.223640 38 38 38 -0.053407 -0.225156 -0.972858
-3.502830 19.024300 3.672880 167 167 167 -0.011771 -0.679580 -0.733507
-3.815670 21.179899 -0.631892 0 0 0 -0.088263 -0.185172 -0.978734
-3.770350 21.232000 0.899394 0 0 0 -0.198934 -0.118182 0.972861
-2.700540 22.783199 3.486710 21 21 21 0.008827 -0.119682 -0.992773
-3.244630 24.253799 -0.954020 26 26 26 -0.395377 -0.875775 -0.276940
-3.789460 23.947201 3.233900 30 30 30 0.002624 0.042132 -0.999109
-3.802290 24.224600 3.483430 60 60 60 -0.100867 -0.431683 -0.896368
-3.830650 25.026400 3.150590 11 11 11 -0.017036 -0.132722 -0.991007
-2.106070 25.690300 17.081499 0 0 0 -0.120595 0.034050 -0.992118
-2.631800 27.160900 3.132290 11 11 11 -0.018784 0.010783 -0.999765
-3.823480 29.701300 3.134660 50 50 50 -0.005635 -0.149347 -0.988769
-3.807160 33.949902 2.920810 19 19 19 -0.004968 -0.004487 -0.999978
-2.004650 36.366699 -1.326030 54 54 54 0.180672 -0.974132 -0.135735
-2.111760 35.070900 2.918290 25 25 25 -0.007692 -0.092008 -0.995728
-2.400030 39.861698 2.812160 51 51 51 -0.056048 0.030476 -0.997963
-1.266390 -39.113400 6.536070 28 28 28 -0.800359 0.317793 0.508363
-1.263560 -39.039600 7.434140 39 39 39 -0.422545 0.487838 0.763852
-1.310640 -36.169399 0.866365 18 18 18 -0.159857 0.295955 0.941730
-0.639494 -36.936199 6.596600 39 39 39 -0.254590 0.483888 0.837279
-0.606490 -34.919800 0.908475 17 17 17 0.019131 0.456930 0.889297
-0.713686 -33.898998 5.407130 37 37 37 -0.020828 0.537838 0.842791
-0.635291 -34.211201 5.612180 73 73 73 -0.011133 0.519937 0.854132
-0.884458 -32.228298 -0.700322 19 19 19 -0.016170 0.564555 0.825237
-0.900419 -32.815701 -0.382934 5 5 5 -0.091423 0.490858 0.866430
-0.976455 -31.340200 1.972570 20 20 20 -0.036331 0.964537 -0.261437
-0.888337 -32.433998 4.541660 34 34 34 0.021411 0.497973 0.866928
-0.607113 -27.222601 5.644820 30 30 30 -0.947879 0.310494 0.071552
-0.384019 -25.822100 -1.390680 2 2 2 0.122456 0.881200 -0.456609
-0.889846 -25.458099 1.931440 13 13 13 -0.033039 0.258023 -0.965574
-0.786973 -24.247700 -1.472390 10 10 10 -0.906282 0.196126 0.374417
-0.878361 -24.240999 0.885001 81 81 81 -0.322727 0.513500 0.795088
-0.747288 -24.991699 2.305510 54 54 54 -0.435245 0.695741 -0.571408
-0.687873 -25.139500 5.310820 9 9 9 -0.642804 0.761436 0.083778
-0.741539 -21.982700 -1.617460 31 31 31 -0.285257 0.210364 0.935081
-0.861539 -22.972200 -0.380131 5 5 5 0.553126 0.728439 0.404263
-0.792521 -22.682301 2.670230 19 19 19 -0.164971 0.038263 -0.985556
-0.533626 -22.639099 5.310780 5 5 5 -0.094031 -0.033669 -0.995000
-0.465009 -20.755400 -1.679570 0 0 0 -0.065165 0.098222 0.993029
0.079232 -20.567801 -0.357019 5 5 5 -0.592708 0.249299 -0.765864
-0.691850 -20.558100 3.375770 2 2 2 -0.917375 0.116269 0.380663
-0.614868 -20.601900 5.129030 46 46 46 0.078247 -0.112115 -0.990610
-1.751220 -19.862900 40.885300 26 26 26 -0.062207 0.997852 -0.020513
-0.721449 -19.813000 41.431400 14 14 14 -0.106987 0.994260 -0.000930
-1.661230 -19.766100 52.897900 4 4 4 -0.034211 0.998814 0.034648
-1.829400 -19.700399 54.702301 17 17 17 -0.028803 0.989587 -0.141025
-1.848390 -19.646400 55.814899 21 21 21 -0.034433 0.999325 0.012791
-1.849850 -19.669701 57.489300 7 7 7 0.010218 0.979434 -0.201507
-1.720130 -19.618900 60.284302 9 9 9 -0.028102 0.996746 -0.075553
-1.703720 -19.450001 63.243401 1 1 1 -0.029111 0.999575 0.001582
-0.327338 -18.807400 -1.689080 1 1 1 0.027435 0.113410 0.993169
-0.594670 -19.135099 5.169660 9 9 9 -0.036524 0.011009 -0.999272
-0.354538 -15.920800 4.661390 20 20 20 -0.016582 -0.001192 -0.999862
-0.538325 -13.443900 -1.642130 3 3 3 -0.015506 0.052693 0.998490
-0.451877 -15.152700 4.612650 41 41 41 0.065417 0.028665 -0.997446
-0.391664 -14.522900 13.682000 1 1 1 -0.111796 -0.420606 -0.900329
-1.800550 -14.548900 29.884899 22 22 22 -0.076959 0.931279 0.356085
-0.358815 -13.057200 -1.737300 9 9 9 -0.077554 0.045393 0.995954
-0.365553 -11.297600 2.491810 2 2 2 0.077371 0.401501 0.912585
-0.184413 -11.855000 12.922700 1 1 1 -0.068343 0.166911 -0.983601
