ply
format ascii 1.0
element vertex 724
property float x
property float y
property float z
property uchar red
property uchar green
property uchar blue
property float nx
property float ny
property float nz
end_header
-9.249520 -8.080060 23.639700 28 28 28 0.603505 0.770583 -0.204897
-9.274110 -8.080560 23.801901 35 35 35 0.392460 0.868417 -0.303029
-9.251410 -8.062300 26.025000 32 32 32 0.014727 0.980858 0.194168
-9.070460 -8.357530 27.795000 33 33 33 -0.022336 0.988284 -0.150985
-9.004280 -8.467280 30.054399 17 17 17 -0.091240 0.995812 -0.005792
-9.021520 -8.027130 31.802000 21 21 21 -0.033325 0.977963 -0.206103
-8.938090 -8.323720 33.861500 24 24 24 -0.027230 0.994468 0.101452
-8.815310 -8.314530 35.857300 15 15 15 -0.050437 0.996025 0.073413
-9.438650 -6.458030 -1.999410 31 31 31 0.000753 0.050336 0.998732
-9.417000 -4.452660 -2.110280 24 24 24 -0.010157 0.018925 0.999769
-9.454890 -2.458720 -2.079710 18 18 18 -0.008443 0.000359 0.999964
-9.462880 -0.457130 -2.085390 14 14 14 0.500160 -0.501193 -0.706149
-9.474430 1.520330 -2.083430 17 17 17 0.001159 0.110793 0.993843
-9.277140 2.350640 3.210240 43 43 43 0.676541 0.174026 -0.715547
-9.230530 3.250590 4.398250 50 50 50 0.939569 0.292686 0.177610
-9.423800 5.504310 -2.222380 16 16 16 -0.005912 0.043948 0.999016
-9.474560 3.527750 -2.152230 16 16 16 -0.004652 0.033741 0.999420
-9.448190 3.816260 3.050930 54 54 54 -0.031735 -0.827979 0.559861
-9.265360 3.567270 4.290120 9 9 9 0.935578 0.342208 0.087103
-9.253270 5.899440 -2.241850 15 15 15 -0.007785 0.049369 0.998750
-9.475120 7.191970 -2.192320 32 32 32 -0.028297 -0.187493 0.981858
-9.078150 7.237430 1.708500 39 39 39 0.045351 -0.630820 -0.774603
-9.419800 6.239670 2.304610 53 53 53 0.061503 -0.409060 -0.910433
-9.459190 6.195770 5.599820 13 13 13 0.558171 -0.740068 -0.375159
-9.206620 6.983970 6.175820 1 1 1 -0.373551 -0.918697 -0.128276
-9.315880 7.524730 -2.109890 30 30 30 -0.080645 -0.243952 0.966428
-9.454080 7.733940 1.060150 49 49 49 0.222881 -0.813065 -0.537820
-9.468230 7.844680 1.910560 37 37 37 0.642646 0.544673 0.538830
-9.431610 7.634350 4.958520 4 4 4 -0.543777 -0.763509 -0.348368
-8.917840 11.488100 -2.154250 22 22 22 -0.028606 -0.111727 0.993327
-9.359770 10.823700 1.642060 31 31 31 0.359988 0.127311 -0.924230
-8.498250 10.158300 1.941350 21 21 21 -0.179386 -0.550772 0.815151
-9.378740 11.592500 -2.155170 26 26 26 -0.016022 -0.147730 0.988898
-9.244770 12.094800 0.180681 11 11 11 -0.147995 -0.946833 -0.285665
-9.476390 14.394800 -1.825820 28 28 28 0.966850 -0.111139 0.229890
-9.468800 14.501200 -0.191683 8 8 8 0.987053 -0.107965 0.118620
-7.820650 15.189000 4.739660 14 14 14 -0.384982 -0.643243 0.661836
-9.417280 14.657400 7.192200 6 6 6 0.531927 0.054165 -0.845056
-8.790370 15.146200 8.049780 2 2 2 0.011592 -0.280494 -0.959786
-9.321650 14.747700 11.507200 6 6 6 0.118193 -0.983073 0.139995
-9.478640 14.748200 11.797600 6 6 6 0.126990 -0.983232 0.130871
-9.433850 14.798700 13.810400 5 5 5 0.684644 -0.727255 0.048612
-9.466000 14.846700 16.021500 5 5 5 0.763289 -0.643721 0.054898
-9.464550 14.883900 18.052601 6 6 6 0.175925 -0.976249 0.126445
-9.468250 14.929400 19.797199 5 5 5 0.782604 -0.621992 -0.025620
-9.417440 14.970700 22.056801 5 5 5 0.003120 -0.995345 0.096322
-9.372000 15.021900 24.011499 5 5 5 0.008823 -0.999870 0.013486
-9.300730 15.074400 26.021799 5 5 5 0.017192 -0.999751 0.014224
-9.428980 15.109300 28.012400 7 7 7 0.018350 -0.999646 0.019277
-9.244680 15.148500 30.039200 5 5 5 0.712225 -0.701290 -0.030463
-9.013760 15.151100 31.797400 7 7 7 0.116723 -0.960978 -0.250791
-9.434480 15.240200 34.584900 9 9 9 -0.165158 -0.648956 -0.742684
-9.097340 15.200300 36.166901 4 4 4 -0.086792 -0.992716 0.083559
-9.442980 15.293900 37.854000 9 9 9 -0.083518 -0.854753 -0.512271
-9.439580 15.328300 41.159100 7 7 7 -0.011653 -0.992238 -0.123805
-8.883200 15.225000 42.081902 2 2 2 0.108962 -0.981348 -0.158378
-9.372250 15.344200 44.459801 9 9 9 0.007325 -0.987234 -0.159106
-9.249130 15.399700 47.759602 8 8 8 0.028120 -0.964543 -0.262422
-9.337720 15.241200 47.817200 5 5 5 0.076833 -0.334171 -0.939375
-9.403490 15.345900 51.059502 16 16 16 0.072947 -0.994736 0.071967
-9.432750 15.478900 54.356701 6 6 6 0.002441 -0.138154 -0.990408
-9.471890 15.495900 57.638802 8 8 8 0.030580 -0.998968 0.033583
-9.401100 15.421000 60.957100 4 4 4 -0.001428 -0.751524 -0.659704
-9.475110 15.492200 67.559998 5 5 5 0.055341 -0.993647 -0.097991
-9.479810 15.521500 -1.408710 5 5 5 0.998967 -0.045208 -0.004653
-9.455480 15.524900 -0.200047 6 6 6 0.987036 -0.159440 0.018386
-8.161830 15.752700 5.005560 8 8 8 -0.351916 -0.535644 0.767620
-9.267240 15.875900 7.748140 13 13 13 0.039006 -0.150063 -0.987907
-9.274170 15.887700 7.808400 14 14 14 0.000544 -0.114503 -0.993423
-9.266470 15.736600 10.371500 11 11 11 0.816485 -0.495000 -0.297200
-8.561270 15.547400 12.139900 4 4 4 -0.064041 -0.300963 -0.951483
-9.203620 15.535900 13.875900 1 1 1 0.953953 -0.294105 0.058963
-9.242610 15.916500 16.291500 2 2 2 0.770520 0.260810 -0.581616
-9.111830 15.508100 18.655100 7 7 7 0.873549 -0.468120 0.133324
-9.087810 15.510000 19.791599 7 7 7 0.955935 -0.293479 -0.007662
-8.898800 15.532300 29.673700 6 6 6 0.661664 -0.747876 0.053682
-8.896050 15.572300 29.794500 6 6 6 0.700640 -0.712605 0.036018
-8.826930 15.539800 33.023998 5 5 5 0.154718 -0.986305 0.057134
-8.806850 15.549300 34.014301 5 5 5 0.808804 -0.558643 -0.183726
-8.750210 15.536600 36.987701 5 5 5 0.428490 -0.901594 -0.059371
-9.474680 15.563300 37.853001 6 6 6 -0.188714 0.688200 -0.700548
-9.456160 15.529700 41.155800 8 8 8 0.018006 -0.999735 -0.014313
-8.635470 15.507900 43.156799 2 2 2 0.063080 -0.997775 0.021586
-9.437440 15.717300 44.454800 6 6 6 -0.050905 0.919495 -0.389791
-9.437310 15.537100 47.775101 7 7 7 0.048765 -0.777220 -0.627336
-9.456330 15.520800 51.059700 9 9 9 0.051083 -0.992925 0.107192
-8.043460 15.519000 52.149399 4 4 4 0.027973 -0.996527 -0.078433
-9.387320 15.758900 54.339901 5 5 5 -0.003781 0.089643 -0.995967
-9.468610 15.535000 57.663601 8 8 8 0.024893 -0.998365 0.051448
-9.420560 15.541600 60.938702 8 8 8 0.007717 -0.969860 -0.243540
-9.421920 15.628700 64.272598 5 5 5 0.010555 -0.999938 0.003680
-9.322990 15.549300 67.549797 7 7 7 0.051174 -0.996199 -0.070489
-8.792160 15.741500 94.022499 11 11 11 0.025270 -0.999651 -0.007645
-9.475270 18.293600 -1.816680 1 1 1 0.427461 -0.161922 0.889415
-9.302820 17.794800 1.053080 0 0 0 0.549506 -0.609888 -0.571034
-8.414830 17.743401 5.706720 25 25 25 0.890267 0.437566 -0.126337
-9.009030 18.395100 7.564230 17 17 17 -0.869339 -0.267145 -0.415793
-9.313970 17.535999 11.763400 19 19 19 -0.015261 0.000781 -0.999883
-9.417410 17.618500 15.939300 3 3 3 0.386633 -0.560902 -0.732055
-9.328980 19.552099 -1.779350 16 16 16 -0.069016 -0.198811 -0.977605
-7.661020 19.982700 2.827850 45 45 45 -0.227743 -0.774879 0.589657
-9.418600 19.540199 7.572250 17 17 17 -0.083333 0.233300 -0.968828
-7.801190 23.373100 3.181140 26 26 26 -0.017639 -0.331146 -0.943415
-9.314140 24.758200 2.881540 17 17 17 0.010670 -0.087065 -0.996146
-9.474270 25.872299 2.835960 51 51 51 0.038960 -0.026984 -0.998876
-7.537330 29.155399 3.034610 28 28 28 -0.040817 0.070553 -0.996673
-9.255140 29.575500 2.909610 18 18 18 0.144820 0.003712 -0.989451
-9.420680 32.686100 3.009530 21 21 21 -0.067585 0.001088 -0.997713
-9.262460 33.721001 2.809520 43 43 43 0.051355 0.033709 -0.998111
-7.773220 39.325100 0.298173 7 7 7 0.135434 -0.852224 -0.505343
-7.784450 40.444901 2.743110 25 25 25 0.673925 -0.414713 -0.611423
-7.422460 -9.100610 -1.901680 21 21 21 -0.015383 0.985221 0.170595
-7.451420 -9.089500 -0.196199 16 16 16 -0.017647 0.999816 -0.007493
-7.469680 -8.748350 3.057170 58 58 58 -0.017177 0.998780 0.046302
-7.448920 -8.747250 3.795370 102 102 102 -0.014306 0.999787 -0.014905
-7.262350 -8.750830 6.460220 30 30 30 -0.013544 0.955805 -0.293689
-7.447720 -10.058700 8.893050 88 88 88 -0.032773 -0.234744 -0.971505
-6.734910 -8.504320 10.745000 34 34 34 0.127283 0.977516 0.168113
-7.447730 -8.534900 12.559000 10 10 10 -0.052915 0.936296 -0.347202
-6.788290 -9.273090 15.705500 39 39 39 0.963063 -0.257611 0.078400
-7.455370 -8.502450 16.257099 31 31 31 -0.132202 0.953541 -0.270707
-7.439290 -8.660970 18.407499 23 23 23 0.035970 0.926359 0.374920
-7.419480 -8.749790 19.871500 35 35 35 0.184057 0.639686 -0.746274
-7.451800 -8.856700 23.587900 62 62 62 0.349966 0.772796 -0.529443
-7.381310 -8.533270 25.746201 24 24 24 -0.177861 0.973784 0.141810
-7.448360 -8.788890 26.549101 59 59 59 0.691783 0.717070 -0.085129
-7.455870 -8.601580 30.883200 60 60 60 -0.238325 0.948031 -0.210802
-7.447530 -8.458570 -1.915600 21 21 21 0.016403 0.154155 0.987911
-7.448090 -8.482160 1.658590 63 63 63 0.236169 0.733847 -0.636940
-7.312610 -8.456150 1.792890 70 70 70 0.313862 0.737800 -0.597613
-5.809870 -8.011460 3.800580 83 83 83 0.508937 0.860638 -0.016901
-7.453350 -8.491570 6.507160 77 77 77 -0.018128 0.977663 -0.209395
-7.445160 -8.484180 8.658030 74 74 74 0.013188 0.952961 -0.302807
-7.441030 -8.417780 9.802200 68 68 68 0.037641 0.999275 0.005645
-7.387640 -8.487710 12.610500 67 67 67 -0.097902 0.969326 -0.225438
-7.445530 -8.404830 13.799400 52 52 52 -0.110338 0.993511 0.027611
-7.454120 -8.459110 16.274401 73 73 73 -0.195359 0.951211 -0.238816
-7.032200 -8.334590 18.431999 30 30 30 -0.041910 0.994872 0.092052
-7.445040 -8.493570 19.904800 33 33 33 0.018220 0.938139 -0.345778
-7.437070 -8.466050 23.559999 43 43 43 -0.133192 0.967346 -0.215643
-7.445330 -8.348300 23.804199 37 37 37 -0.138284 0.950750 -0.277404
-7.443270 -8.455140 27.205999 51 51 51 -0.014518 0.968649 -0.248007
-7.311070 -8.326090 27.868401 31 31 31 -0.138823 0.985377 -0.098790
-7.472120 -8.447830 30.848900 42 42 42 -0.176597 0.983679 -0.034473
-7.381290 -8.303150 31.804300 20 20 20 -0.160225 0.978114 -0.132744
-7.336630 -8.297150 33.805698 15 15 15 0.071778 0.995838 0.056173
-7.421540 -8.288420 35.889702 15 15 15 -0.068551 0.996339 0.051089
-7.420630 -6.451480 -1.998150 32 32 32 -0.002589 0.038483 0.999256
-7.429240 -4.462720 -2.097900 28 28 28 -0.004998 0.027753 0.999602
-7.451640 -2.456840 -2.063000 17 17 17 -0.008746 -0.002576 0.999958
-7.425060 -0.452278 -2.069540 17 17 17 0.021221 -0.004598 0.999764
-7.463480 1.546780 -2.066940 18 18 18 -0.009585 0.019563 0.999763
-6.243350 3.498740 2.835000 21 21 21 0.241630 0.012894 -0.970283
-7.467960 3.533520 -2.146180 18 18 18 -0.004295 0.033701 0.999423
-7.240290 5.338370 1.349470 38 38 38 0.644355 -0.529937 -0.551338
-7.460800 4.218970 1.899340 60 60 60 0.696986 -0.403942 -0.592488
-7.409480 3.651610 5.056720 45 45 45 0.957676 0.275636 0.082955
-7.465840 5.786400 -2.222490 17 17 17 -0.006162 0.046136 0.998916
-7.473830 5.541190 -2.212600 19 19 19 -0.006330 0.044738 0.998979
-7.199400 5.506530 1.530510 44 44 44 0.596632 -0.451870 -0.663208
-7.357240 6.048780 1.796960 37 37 37 0.631884 -0.064981 -0.772334
-7.172690 5.570830 3.856520 64 64 64 -0.103138 -0.563879 -0.819392
-7.421580 7.510090 -2.140400 48 48 48 0.022117 -0.128957 0.991404
-7.430480 9.398330 1.459960 81 81 81 0.106833 0.113314 -0.987799
-7.469700 7.652060 1.810180 28 28 28 0.406385 -0.295239 -0.864688
-7.276270 10.442900 -2.162570 28 28 28 -0.008700 -0.022617 0.999706
-7.412130 9.696300 1.704470 64 64 64 0.370119 0.073524 -0.926070
-6.907460 9.597960 3.223920 26 26 26 -0.505376 -0.765246 0.398740
-5.813800 10.818300 4.626060 40 40 40 0.689989 -0.088343 0.718408
-7.351430 10.544000 7.249320 29 29 29 0.816047 -0.390595 0.426030
-7.458980 11.551100 -2.137100 30 30 30 -0.010255 -0.065196 0.997820
-7.268640 12.243400 0.933022 31 31 31 0.081332 -0.114106 -0.990134
-6.937660 11.716300 5.562160 39 39 39 0.698107 -0.052656 0.714054
-7.093390 15.059400 -0.589818 0 0 0 -0.169630 -0.985483 -0.006942
-7.054750 15.074600 1.116370 0 0 0 0.790437 -0.344063 0.506784
-7.426020 14.647100 4.352180 9 9 9 -0.458576 -0.615447 0.641040
-6.989030 15.277800 6.130740 3 3 3 -0.288010 -0.942287 -0.170723
-7.476600 14.743000 8.034220 6 6 6 0.145545 0.148365 -0.978164
-6.869260 15.314900 9.948910 8 8 8 -0.353719 -0.918673 0.175851
-7.465120 14.807700 12.155900 9 9 9 -0.049234 -0.152167 -0.987128
-6.512790 14.863100 13.804500 5 5 5 0.642199 -0.757192 -0.119334
-7.467590 14.947400 16.772900 10 10 10 0.041142 -0.312467 -0.949037
-7.320200 15.319500 18.176300 6 6 6 -0.193384 -0.877682 0.438494
-7.237210 15.043400 21.106400 7 7 7 -0.102650 -0.787100 -0.608225
-7.468680 14.989500 21.993601 11 11 11 0.001222 -0.994314 0.106481
-7.472740 15.186000 24.057199 14 14 14 0.021259 -0.999769 0.003188
-7.471990 15.182400 25.800800 7 7 7 0.022839 -0.999656 0.012881
-7.451780 15.187800 27.788401 10 10 10 0.021457 -0.999555 -0.020732
-7.434690 15.197400 31.283701 7 7 7 -0.026972 -0.503101 -0.863806
-7.408850 15.191800 31.804800 3 3 3 -0.021557 -0.961296 -0.274673
-7.429580 15.231300 34.566101 7 7 7 -0.020996 -0.222535 -0.974699
-6.002880 15.262500 35.786900 4 4 4 0.149321 -0.988697 0.013460
-7.286690 15.274300 37.858799 8 8 8 0.066966 -0.500509 -0.863137
-7.394250 15.296700 41.154701 7 7 7 0.055938 -0.818641 -0.571575
-5.832810 15.327500 42.788601 1 1 1 -0.098123 -0.991198 0.088873
-7.249600 15.438300 44.408199 8 8 8 0.002192 -0.992248 -0.124255
-7.359250 15.415900 47.706501 5 5 5 0.009526 -0.994166 -0.107438
-7.082660 15.327000 48.030300 3 3 3 -0.038687 -0.876923 -0.479071
-7.421980 15.494200 51.032501 6 6 6 0.046112 -0.998885 -0.010149
-7.451590 15.401400 54.353298 6 6 6 0.035597 -0.992518 -0.116795
-7.435120 15.464400 57.647701 5 5 5 0.031395 -0.998270 0.049722
-7.359530 15.405400 58.038101 5 5 5 0.030958 -0.995907 -0.084920
-7.294730 15.465600 60.959000 5 5 5 0.008633 -0.797805 -0.602854
-6.964140 17.379101 -0.906761 0 0 0 0.626889 -0.775362 -0.076316
-6.800420 17.031601 0.536430 7 7 7 0.849145 0.099529 0.518697
-5.741420 15.737200 3.620100 3 3 3 -0.275472 -0.580519 -0.766233
-7.461820 15.785000 4.950970 10 10 10 0.489178 0.393864 -0.778188
-7.459360 16.090900 7.552320 25 25 25 -0.162457 -0.482706 -0.860583
-7.459560 15.524100 8.024670 3 3 3 0.185870 -0.191242 -0.963784
-7.471660 16.059200 11.759100 26 26 26 -0.100739 -0.379539 -0.919675
-7.236830 15.604700 12.110300 4 4 4 0.064214 -0.296197 -0.952966
-6.231930 16.299000 14.466000 1 1 1 0.975856 0.083128 -0.201976
-7.460090 15.513400 16.771999 3 3 3 -0.056064 -0.193497 -0.979498
-7.452700 15.646800 18.636801 3 3 3 -0.220096 -0.848569 0.481132
-7.414350 15.513100 21.107700 7 7 7 0.044328 -0.464296 -0.884570
-7.441100 15.508600 29.176800 3 3 3 0.048418 -0.944815 0.324007
-7.465680 15.559000 30.042801 5 5 5 0.107992 -0.936655 0.333188
-7.454140 15.531700 32.689400 4 4 4 -0.019174 -0.984871 0.172226
-7.372800 15.559800 33.794498 4 4 4 0.336908 -0.938181 -0.079427
-7.300570 15.607800 36.147701 3 3 3 -0.116767 -0.981830 0.149585
-7.291340 15.584200 39.487202 3 3 3 -0.053597 -0.996611 0.062409
-7.324620 15.552700 39.798199 3 3 3 0.042674 -0.995016 0.090123
-7.240010 15.572400 42.979801 2 2 2 0.028994 -0.999569 -0.004489
-7.268860 15.581700 44.355400 6 6 6 0.030191 -0.999501 -0.009265
-7.471370 15.550800 47.709400 5 5 5 0.007765 -0.963415 -0.267901
-7.464070 15.531900 51.033699 7 7 7 0.050908 -0.998481 -0.021075
-7.152570 15.525500 52.097500 7 7 7 0.000952 -0.997459 -0.071234
-7.441660 15.532000 54.302601 8 8 8 0.024517 -0.999678 -0.006567
-7.147220 15.507600 57.598400 4 4 4 0.022904 -0.998950 0.039677
-7.466200 15.678000 59.499401 8 8 8 -0.005513 -0.999844 0.016755
-7.405010 15.649000 60.894299 7 7 7 0.028869 -0.982287 -0.185145
-6.735160 15.737500 64.101196 6 6 6 0.014167 -0.999510 0.027929
-7.479290 15.596500 67.544701 8 8 8 0.024555 -0.999568 0.016143
-7.064810 15.784000 70.066498 8 8 8 0.031603 -0.998621 0.041920
-6.107130 16.005899 77.360703 8 8 8 0.041396 -0.998691 0.030031
-6.753910 15.750600 90.596100 7 7 7 0.024373 -0.999236 0.030539
-7.354760 18.287800 -1.794960 20 20 20 -0.481603 -0.481457 0.732297
-7.434130 18.686800 0.859051 0 0 0 -0.180890 -0.982881 0.034968
-7.022910 18.883801 2.948680 123 123 123 0.269076 -0.857447 -0.438616
-6.481640 19.175501 7.106630 5 5 5 0.513122 -0.006233 -0.858293
-6.353450 17.543400 10.739600 5 5 5 0.982181 0.022719 -0.186561
-6.525830 17.800699 15.650100 3 3 3 0.001020 -0.920721 -0.390219
-6.730130 17.801500 16.279499 2 2 2 -0.182770 -0.670666 -0.718889
-7.468350 19.631500 -1.796290 5 5 5 0.162809 -0.228108 -0.959927
-6.965480 19.632200 0.151023 0 0 0 0.225390 -0.178298 0.957815
-6.980740 21.272900 2.919050 5 5 5 -0.088030 0.039534 -0.995333
-6.488490 19.516399 7.192590 5 5 5 0.385262 -0.012474 -0.922723
-6.343420 22.872999 -1.692260 0 0 0 0.156739 -0.121854 -0.980094
-6.480680 22.695801 3.063750 23 23 23 -0.051845 -0.114786 -0.992036
-5.981730 22.430401 7.518550 7 7 7 0.117512 0.028699 -0.992657
-7.315880 23.800501 2.909650 41 41 41 -0.013256 -0.098209 -0.995077
-5.507110 27.497900 -1.467750 3 3 3 -0.776896 -0.198864 0.597399
-7.471290 25.921900 2.796440 32 32 32 -0.018424 -0.069608 -0.997404
-5.532070 28.179600 -2.397780 13 13 13 0.900312 0.123437 -0.417374
-5.641220 28.169001 -2.191560 11 11 11 -0.872097 -0.218376 0.437903
-7.443100 29.558300 2.909180 57 57 57 -0.211029 -0.419278 0.882991
-6.532980 33.491001 2.895760 56 56 56 -0.005774 0.012744 -0.999902
-6.501710 33.779202 2.812620 44 44 44 -0.034081 -0.003085 -0.999414
-4.904560 -14.576600 5.059120 103 103 103 0.672062 0.105951 -0.732876
-4.881900 -14.571100 5.797710 103 103 103 -0.039680 0.520069 -0.853202
-4.589660 -13.872300 6.428000 58 58 58 -0.088489 0.487890 -0.868408
-5.237040 -8.499340 -0.710487 65 65 65 0.367726 0.925366 0.092056
-5.221690 -8.547540 -0.198682 85 85 85 0.252486 0.967534 -0.011331
-5.148050 -8.499990 2.205070 53 53 53 0.375605 0.916812 0.135559
-5.064930 -8.706550 3.799450 119 119 119 0.374257 0.926694 -0.034207
-5.030400 -8.801240 6.422210 35 35 35 -0.703027 0.702706 -0.109351
-5.427920 -10.048800 8.855240 82 82 82 0.015414 -0.279456 -0.960035
-5.210470 -9.176430 11.509500 54 54 54 0.976958 -0.193358 -0.090365
-5.393080 -9.899840 12.560100 96 96 96 -0.012161 -0.288282 -0.957468
-5.166850 -9.211470 15.641300 24 24 24 0.902946 -0.217068 -0.370905
-5.304530 -9.457140 16.233601 88 88 88 -0.023768 -0.174450 -0.984379
-4.774310 -8.798800 19.219700 10 10 10 0.969200 0.238178 -0.062630
-4.914270 -8.844090 19.852200 7 7 7 0.977629 -0.210261 -0.005629
-4.767440 -8.507240 22.015900 17 17 17 0.767693 0.635959 0.078765
-4.607340 -8.498410 25.703699 28 28 28 0.681542 0.720528 0.127828
-4.788420 -8.913340 27.179899 69 69 69 0.924900 -0.372518 -0.076092
-4.731280 -8.601960 30.402800 5 5 5 0.566174 0.619872 -0.543328
-5.309920 -8.264570 -1.594840 94 94 94 0.179705 0.851288 0.492964
-5.371580 -8.477390 -0.200965 84 84 84 0.449761 0.892792 0.025242
-5.340330 -8.453470 1.805930 74 74 74 0.419391 0.907641 0.017304
-5.294500 -8.452710 3.801650 93 93 93 0.623086 0.779068 -0.069404
-5.259050 -8.398100 5.803720 68 68 68 0.698762 0.715349 -0.002833
-5.442430 -7.984870 7.792690 72 72 72 0.789578 0.612445 -0.038428
-5.445820 -7.970350 9.791000 66 66 66 0.401042 0.914901 -0.046071
-5.455390 -7.964440 11.801200 60 60 60 0.864103 0.503103 -0.014592
-5.445390 -7.952070 14.041100 52 52 52 0.360229 0.927208 -0.102574
-5.455550 -7.946980 15.794500 47 47 47 0.576608 0.797931 0.175584
-5.474250 -7.933510 18.033600 45 45 45 0.400939 0.914987 -0.045249
-5.440920 -7.929460 20.031601 36 36 36 0.291292 0.941464 -0.169689
-5.398460 -7.912590 22.074301 34 34 34 0.426541 0.904381 -0.012543
-5.350050 -7.906300 23.839800 32 32 32 0.292742 0.956121 0.011600
-5.309330 -7.890440 25.839800 29 29 29 0.460617 0.886927 -0.034535
-5.396170 -8.044190 29.506100 31 31 31 -0.086245 0.996139 -0.016407
-5.207760 -7.870600 30.034000 18 18 18 0.398303 0.893984 0.205297
-5.101350 -7.862010 32.022598 16 16 16 0.038103 0.999211 -0.011209
-5.469340 -8.247250 35.648300 12 12 12 -0.234747 0.971953 -0.014188
-5.469080 -8.246980 35.817001 11 11 11 -0.185897 0.979294 0.080157
-5.475590 -6.477220 -1.942260 34 34 34 -0.051574 0.030054 0.998217
-3.712070 -6.416400 0.933810 24 24 24 0.905797 -0.416773 0.076369
-5.449570 -4.456170 -2.076490 34 34 34 -0.032184 0.060304 0.997661
-5.452950 -2.453360 -2.048040 19 19 19 -0.006762 -0.002137 0.999975
-5.444760 -0.448519 -2.051310 18 18 18 -0.008177 -0.004527 0.999956
-5.475280 1.551170 -2.052470 21 21 21 -0.007362 0.018152 0.999808
-5.458880 3.548690 -2.133140 22 22 22 -0.005922 0.037234 0.999289
-5.344930 5.489090 1.704090 49 49 49 -0.356096 -0.890002 -0.284767
-5.459730 3.993070 2.887600 55 55 55 0.039362 -0.187762 -0.981425
-3.511830 4.996040 3.858040 95 95 95 0.747992 0.001192 -0.663707
-5.461250 6.020640 -2.221840 14 14 14 -0.005911 0.048818 0.998790
-5.459060 5.538400 -2.200150 22 22 22 -0.006067 0.046096 0.998919
-5.364020 5.550480 1.771130 31 31 31 -0.551170 -0.671215 -0.495663
-5.461720 5.679480 2.691630 37 37 37 0.398937 0.368314 -0.839758
-5.054860 6.342080 4.209690 39 39 39 -0.255708 -0.662562 -0.704006
-5.463560 7.534660 -2.169820 44 44 44 0.008845 -0.100228 0.994925
-5.411280 9.011000 1.380820 58 58 58 -0.148249 -0.910035 -0.387116
-5.423440 7.739070 2.659860 58 58 58 -0.258367 -0.498743 -0.827346
-5.171670 8.990010 3.989370 34 34 34 0.942425 0.194242 -0.272222
-5.314190 9.516620 -2.149400 30 30 30 -0.006005 0.019410 0.999794
-5.122040 9.590830 0.607225 80 80 80 0.177238 -0.638166 -0.749220
-5.269380 10.329000 3.362930 18 18 18 0.859067 -0.508059 -0.062298
-5.477980 10.940400 4.565210 30 30 30 0.707823 -0.217825 0.671966
-5.369830 11.552400 -2.118010 33 33 33 -0.005461 -0.056141 0.998408
-5.175180 13.249100 1.557150 60 60 60 0.382987 -0.410139 -0.827712
-5.271510 12.686800 3.303070 14 14 14 0.406826 0.113373 -0.906443
-5.460410 11.549600 5.109870 40 40 40 0.409612 -0.785061 0.464648
-5.003530 14.688500 -1.753980 23 23 23 -0.203739 -0.380661 -0.901991
-3.667500 14.644600 -0.198401 15 15 15 0.645423 -0.763703 -0.013661
-5.231790 14.683300 3.751280 8 8 8 0.062996 -0.761401 -0.645214
-5.273860 14.685800 3.806100 8 8 8 -0.033214 -0.570363 -0.820721
-3.562800 14.766200 5.807800 10 10 10 0.668611 -0.740798 0.064628
-5.475560 14.773000 8.005370 8 8 8 0.001418 -0.963112 -0.269097
-3.602380 15.429500 10.251000 9 9 9 -0.116898 -0.276560 -0.953860
-5.459710 14.894400 12.088900 6 6 6 0.061561 -0.610406 -0.789693
-5.468040 14.966800 16.749001 8 8 8 0.016779 -0.936776 -0.349526
-5.419990 15.372200 18.144899 7 7 7 0.351912 -0.854994 0.380976
-5.452130 15.094300 21.073799 7 7 7 0.237917 -0.517941 -0.821665
-5.410690 15.215400 22.287300 3 3 3 0.120360 -0.989749 0.076884
-5.478780 15.223600 24.047300 13 13 13 0.086764 -0.996198 0.007801
-5.458490 15.223500 26.015600 10 10 10 0.073185 -0.997276 0.009232
-5.464790 15.238400 27.801201 8 8 8 0.035512 -0.999367 -0.002351
-5.470540 15.249200 31.243099 10 10 10 0.158657 -0.795856 -0.584330
-5.451410 15.250400 34.647900 6 6 6 0.111154 -0.888611 -0.444990
-5.457080 15.384400 37.783298 7 7 7 0.072743 -0.490600 -0.868343
-5.463510 15.279500 38.020699 4 4 4 -0.023816 -0.650360 -0.759253
-5.246440 15.462200 41.059200 5 5 5 0.049233 -0.960473 -0.273985
-5.475500 15.428800 43.147900 4 4 4 0.010231 -0.993484 0.113511
-5.466620 15.465200 43.847698 5 5 5 0.046877 -0.989620 0.135845
-5.369350 15.429800 47.666401 7 7 7 -0.000926 -0.162824 -0.986655
-5.212440 15.351800 47.790798 3 3 3 -0.003855 -0.371126 -0.928575
-4.095330 15.499100 50.955502 8 8 8 -0.014941 -0.092813 -0.995571
-4.768470 15.491400 54.305698 5 5 5 0.007855 -0.194735 -0.980825
-5.069840 15.490900 57.598598 4 4 4 0.028436 -0.889091 -0.456846
-4.672450 15.448800 58.041500 6 6 6 0.012434 -0.935895 -0.352060
-4.506890 15.708100 3.586350 2 2 2 0.399277 -0.175881 -0.899802
-4.901350 15.797400 5.719250 10 10 10 0.100268 -0.973723 0.204475
-5.433190 16.137501 7.506080 23 23 23 -0.149016 -0.487133 -0.860520
-5.474710 15.545700 7.982950 3 3 3 0.122670 -0.318080 -0.940094
-5.471110 16.109301 11.709000 27 27 27 -0.019370 -0.354420 -0.934886
-5.471280 15.528900 12.081800 7 7 7 0.068826 -0.257594 -0.963799
-5.452340 15.851200 13.843200 1 1 1 0.672619 -0.580273 0.459204
-5.470810 15.519200 16.732201 6 6 6 0.213976 -0.064339 -0.974718
-5.373770 15.809400 18.675200 5 5 5 0.588221 -0.712238 0.383032
-5.434110 15.532400 21.055401 5 5 5 0.199872 -0.439483 -0.875731
-5.089530 15.529600 28.948400 8 8 8 0.172437 -0.954184 0.244536
-5.468230 15.551100 31.191000 6 6 6 0.417596 -0.656666 -0.628015
-4.795190 15.544900 32.291599 6 6 6 0.073283 -0.979642 0.186900
-5.425460 15.548700 34.500198 7 7 7 0.433283 -0.614120 -0.659638
-5.307930 15.713800 37.757702 6 6 6 0.183836 -0.607451 -0.772792
-5.460110 15.769600 37.786800 6 6 6 0.040475 -0.549776 -0.834331
-5.461880 15.518200 41.094799 6 6 6 0.021658 -0.971380 -0.236543
-5.477790 15.560400 43.403000 3 3 3 0.060141 -0.996768 0.053263
-5.467100 15.591600 44.095402 2 2 2 0.027928 -0.991335 0.128354
-5.376550 15.513000 47.653801 8 8 8 0.004048 -0.340082 -0.940387
-5.326940 15.685800 50.924500 5 5 5 -0.029076 -0.313198 -0.949243
-5.255840 15.729100 54.213100 3 3 3 0.013068 -0.523211 -0.852103
-5.090840 15.555700 57.556499 7 7 7 0.031992 -0.938887 -0.342735
-4.564090 15.511400 58.005001 0 0 0 0.012125 -0.967310 -0.253308
-5.016800 15.519000 60.905102 4 4 4 -0.010774 -0.450858 -0.892531
-4.981530 15.882900 64.848503 10 10 10 0.018751 -0.998369 -0.053931
-4.898620 15.683500 67.454803 5 5 5 0.011850 -0.998968 -0.043842
-4.630610 15.931300 77.388603 3 3 3 0.024139 -0.999517 0.019573
-4.081820 15.801200 78.145599 1 1 1 0.020843 -0.999774 0.004231
-4.059240 15.850000 93.844299 11 11 11 0.020613 -0.999778 -0.004327
-5.317500 18.898600 -1.779070 109 109 109 0.752663 -0.292546 0.589844
-3.525040 18.960100 -0.200717 255 255 255 -0.892301 -0.430381 -0.136278
-5.429730 18.926600 2.737840 95 95 95 0.027818 0.068307 -0.997276
-4.865270 18.152599 5.702870 23 23 23 0.889799 -0.447387 0.090012
-5.269750 17.526899 7.491010 20 20 20 -0.030320 0.039394 -0.998764
-5.466330 17.529900 11.682300 27 27 27 0.006578 -0.022622 -0.999722
-5.463490 17.830000 15.659200 3 3 3 0.036462 -0.988196 -0.148795
-5.414540 17.510599 16.710199 136 136 136 -0.066156 -0.554641 -0.829456
-5.248920 19.594900 -1.772100 51 51 51 0.171893 0.033562 0.984544
-5.351170 20.488600 0.329852 14 14 14 0.616080 -0.756507 -0.219415
-5.415030 20.108299 2.758360 11 11 11 0.141488 -0.169950 -0.975243
-5.398380 19.547899 7.499360 18 18 18 0.057283 0.015006 -0.998245
-4.216120 23.329901 -1.946490 1 1 1 -0.272825 -0.151238 0.950102
-3.620030 23.368000 -0.208962 75 75 75 0.994052 0.003252 0.108858
-4.520220 23.171200 2.750460 10 10 10 0.240048 -0.107519 0.964788
-4.347140 24.054199 -1.697940 3 3 3 0.215257 -0.075123 -0.973664
-3.765220 24.103600 0.099450 13 13 13 0.994051 -0.081159 0.072630
-4.996360 26.140800 -1.449100 4 4 4 -0.035324 -0.120233 0.992117
-4.102890 26.265100 0.208596 14 14 14 0.546132 -0.820117 -0.170730
-5.066310 25.971300 2.747130 36 36 36 -0.556426 -0.051346 -0.829309
-5.456690 28.168900 -2.343050 24 24 24 0.910346 0.106663 -0.399866
-5.257890 27.509701 -1.666240 4 4 4 -0.875134 -0.191062 0.444562
-4.821500 27.666100 0.407439 6 6 6 0.035923 -0.997049 -0.067840
-4.911560 27.566900 1.806590 8 8 8 -0.073623 -0.993039 -0.091938
-3.464290 -8.516640 -0.993934 81 81 81 -0.114125 0.982918 0.144390
-3.463370 -8.515100 -0.193611 97 97 97 -0.063128 0.997454 -0.033168
-3.450320 -8.547810 2.202450 30 30 30 -0.016866 0.987076 0.159362
-3.288150 -9.938850 4.874350 10 10 10 0.999135 0.028749 0.030052
-3.453450 -8.750170 6.388440 38 38 38 0.002883 0.985831 -0.167716
-3.453130 -10.020900 8.815430 107 107 107 -0.010043 -0.216974 -0.976126
-3.247490 -9.131870 11.508000 4 4 4 -0.020919 0.919910 0.391570
-3.452980 -9.866040 12.537700 5 5 5 -0.097073 -0.339395 -0.935622
-3.320640 -9.125100 15.489200 9 9 9 0.801269 0.591896 -0.087329
-3.456320 -9.460950 16.190599 109 109 109 0.102846 -0.222240 -0.969553
-3.317370 -8.912310 19.125700 35 35 35 0.765061 0.633768 -0.114105
-3.450160 -9.197610 19.851900 94 94 94 -0.053348 0.078820 -0.995460
-3.455950 -9.011680 23.497999 79 79 79 -0.446756 -0.101601 -0.888868
-3.477490 -8.648900 26.371901 22 22 22 0.845821 0.418803 -0.330440
-3.397200 -8.576730 30.129601 7 7 7 0.030605 0.973748 -0.225560
-3.370690 -8.407420 -1.489860 28 28 28 -0.118241 0.827116 0.549453
-3.392190 -8.492040 -0.074775 71 71 71 -0.042886 0.999055 -0.007078
-3.451490 -8.426850 1.804410 90 90 90 -0.028823 0.997581 0.063260
-1.700200 -8.494070 4.306160 38 38 38 -0.015422 0.997126 -0.074168
-3.448100 -8.455170 6.384690 68 68 68 -0.027981 0.976409 -0.214109
-3.447070 -8.456140 8.542140 76 76 76 0.160414 0.953197 -0.256286
-3.453480 -8.324730 9.797790 78 78 78 0.001352 0.999508 0.031323
-3.449580 -8.468290 12.493800 19 19 19 0.340624 0.767570 -0.542966
-3.446540 -8.313780 13.795000 53 53 53 -0.054834 0.994568 0.088477
-3.465120 -8.450250 16.158001 23 23 23 0.547312 0.686649 -0.478501
-2.633480 -8.226670 18.103399 29 29 29 -0.085420 0.994478 0.060964
-3.447540 -8.412290 19.803400 31 31 31 0.398194 0.793579 -0.460080
-3.454380 -8.492790 22.014299 16 16 16 0.739881 0.665360 0.099361
-3.452160 -8.251340 23.805099 30 30 30 0.136754 0.938461 -0.317160
-3.462700 -8.368940 26.473900 1 1 1 0.451020 0.888864 -0.080635
-3.407200 -8.356080 29.344801 3 3 3 -0.082291 0.990358 0.111443
-3.404760 -8.351590 30.552799 4 4 4 0.081089 0.996498 0.020381
-3.400840 -8.138780 31.829000 14 14 14 -0.072817 0.981045 -0.179578
-3.340530 -8.199010 34.042599 18 18 18 0.081422 0.996641 -0.008786
-3.454430 -6.465450 -1.907930 55 55 55 0.042487 0.030982 0.998617
-3.428820 -6.174420 -0.078612 4 4 4 0.881923 -0.471036 -0.018348
-3.455900 -4.472200 -2.063580 40 40 40 -0.041140 0.165262 0.985391
-3.456210 -2.448210 -2.035110 23 23 23 -0.006344 -0.003893 0.999972
-3.447880 -0.450474 -2.036290 20 20 20 -0.005984 -0.004293 0.999973
-3.473030 1.548260 -2.039480 26 26 26 -0.006709 0.018820 0.999800
-3.474660 3.551710 -2.120560 21 21 21 -0.008093 0.035608 0.999333
-3.465250 5.077870 3.759600 40 40 40 0.670410 0.167287 -0.722887
-3.423770 4.949600 3.957040 24 24 24 0.848085 0.206759 -0.487856
-3.462790 6.294790 -2.225670 21 21 21 -0.005742 0.054110 0.998518
-3.468920 5.586080 -2.190510 23 23 23 -0.006612 0.047205 0.998863
-3.372140 5.844150 3.335580 64 64 64 0.018826 -0.489843 -0.871607
-3.476630 5.869970 4.040310 41 41 41 -0.550690 -0.676981 0.488300
-3.470380 7.540240 -2.161820 42 42 42 -0.005945 -0.102708 0.994694
-3.323950 7.752060 1.248800 50 50 50 -0.209598 -0.158907 -0.964789
-3.278880 9.746760 -2.139560 33 33 33 0.001591 0.025254 0.999680
-3.478350 10.251400 0.887186 49 49 49 0.893926 -0.382314 0.233948
-3.422620 10.747500 2.025830 46 46 46 0.375937 -0.829426 0.413187
-3.467270 11.541200 -2.104070 42 42 42 0.004553 -0.052262 0.998623
-2.960710 11.569600 2.659430 19 19 19 0.565563 -0.698893 0.437821
-3.402510 11.689800 3.999020 15 15 15 0.548754 -0.127364 -0.826225
-3.247740 14.255400 -1.968900 31 31 31 0.687809 -0.365007 0.627446
-3.472670 14.643600 -0.206294 10 10 10 0.848603 -0.528822 -0.014846
-3.283130 13.995900 3.052810 8 8 8 0.997297 -0.001695 -0.073455
-3.475600 14.732400 3.800120 10 10 10 0.101779 -0.991642 -0.079293
-3.465200 14.767200 5.795150 8 8 8 0.774816 -0.629054 0.062862
-3.477190 14.813800 7.809420 9 9 9 0.139902 -0.988518 -0.057087
-3.465640 14.843900 9.807700 8 8 8 0.686215 -0.727129 0.019831
-3.360520 14.894600 11.795800 6 6 6 0.231179 -0.960971 0.151958
-3.313550 14.943300 14.041200 6 6 6 0.738542 -0.673074 -0.039062
-3.263580 14.979500 15.795900 4 4 4 0.762642 -0.646099 0.030552
-3.275030 15.026300 17.884600 5 5 5 0.072305 -0.989834 0.122479
-3.432440 15.100600 21.059000 8 8 8 -0.101787 -0.948794 -0.299046
-3.474850 15.111300 21.793200 13 13 13 -0.046479 -0.998620 0.024437
-3.473050 15.272600 24.032200 10 10 10 -0.030055 -0.999548 0.000162
-3.473630 15.270400 26.056000 13 13 13 -0.023236 -0.999536 0.019693
-3.328690 15.247900 27.855801 7 7 7 0.012302 -0.999665 -0.022755
-3.438130 15.372300 31.156000 10 10 10 -0.147862 -0.652146 -0.743534
-2.882250 15.304100 32.041302 5 5 5 -0.034729 -0.998019 -0.052456
-3.365700 15.402700 34.456799 9 9 9 -0.157495 -0.445679 -0.881230
-3.437430 15.445100 37.758598 8 8 8 -0.059006 -0.491580 -0.868831
-3.233370 15.342100 37.787201 7 7 7 -0.179998 -0.423365 -0.887898
-3.427720 15.394200 41.059700 8 8 8 -0.039162 -0.332299 -0.942361
-2.544430 15.388800 41.919601 3 3 3 -0.003054 -0.950365 -0.311121
-3.459250 15.437800 44.353802 5 5 5 -0.025313 -0.930065 -0.366521
-3.250950 15.501200 47.649399 8 8 8 -0.024695 -0.112802 -0.993311
-3.265090 15.463100 51.004799 4 4 4 -0.006192 -0.238985 -0.971004
-2.826730 15.485400 54.591599 4 4 4 -0.008993 -0.865628 -0.500607
-3.050170 15.488900 57.609699 3 3 3 -0.000344 -0.864243 -0.503074
-3.479520 15.493300 60.955898 0 0 0 -0.015339 -0.489063 -0.872114
-3.170090 15.527200 -1.395930 7 7 7 0.975870 -0.199664 0.088388
-3.144300 15.597500 -0.207603 7 7 7 0.984889 -0.171010 -0.027378
-3.103330 15.593100 1.807770 8 8 8 0.976303 -0.216096 0.011625
-3.052330 15.536800 4.806420 8 8 8 0.916853 -0.367177 0.156724
-3.024360 15.598000 6.058290 9 9 9 0.952262 -0.303972 -0.028254
-2.992140 15.530700 7.801070 9 9 9 0.572692 -0.177531 -0.800317
-2.981020 15.679100 9.796310 8 8 8 0.958085 -0.083883 0.273928
-2.935210 15.538900 11.788600 8 8 8 0.747153 -0.237277 -0.620856
-2.896690 15.543300 13.805800 0 0 0 0.897018 -0.441825 0.012206
-2.982300 16.454901 16.112499 17 17 17 0.732739 0.151329 -0.663470
-2.808060 15.594800 18.474001 7 7 7 0.795573 -0.591766 0.129910
-3.465040 15.517500 21.021299 6 6 6 -0.177842 -0.427613 -0.886295
-3.288510 15.529300 28.907700 4 4 4 -0.193225 -0.949745 0.246269
-3.470130 15.516100 31.157900 7 7 7 -0.131418 -0.702927 -0.699016
-3.361750 15.579900 32.286201 6 6 6 -0.141170 -0.980069 0.139772
-3.477490 15.541600 34.456799 8 8 8 -0.098806 -0.517831 -0.849758
-3.461210 15.552600 37.755100 8 8 8 -0.036020 -0.549402 -0.834782
-3.418690 15.536800 41.032001 8 8 8 -0.025238 -0.662150 -0.748946
-3.423180 15.550100 44.331299 6 6 6 0.013396 -0.991108 -0.132384
-3.421620 15.535700 47.648998 7 7 7 -0.022283 -0.151750 -0.988168
-3.401400 15.529700 50.956501 8 8 8 -0.005791 -0.151756 -0.988401
-3.398590 15.702200 54.242901 5 5 5 0.017104 -0.841171 -0.540498
-3.394250 15.578100 57.559399 6 6 6 0.025737 -0.959747 -0.279686
-3.284890 15.634500 60.810200 7 7 7 -0.018301 -0.109279 -0.993843
-3.085020 15.969800 64.158897 5 5 5 0.064845 -0.997737 0.017783
-3.422270 15.685900 67.409798 8 8 8 0.030608 -0.997556 -0.062812
-3.271260 15.730800 77.373199 4 4 4 0.015142 -0.999873 -0.004955
-2.496480 15.952200 93.809601 23 23 23 0.023974 -0.999583 0.016089
-3.323710 18.935499 -1.966520 37 37 37 0.010550 -0.916222 0.400532
-3.479150 18.976999 -0.091079 34 34 34 -0.958225 -0.252344 -0.134637
-3.434760 17.605200 3.148940 1 1 1 0.231258 -0.147941 -0.961578
-2.980840 17.748600 7.446220 22 22 22 0.025739 0.013627 -0.999576
-3.188880 17.742201 11.253400 3 3 3 0.402148 -0.046377 -0.914400
-2.980740 17.856100 15.543800 2 2 2 -0.038554 -0.955971 -0.290918
-3.108660 17.530100 16.655199 123 123 123 -0.230540 -0.455422 -0.859908
-3.458210 19.701099 -1.768250 1 1 1 -0.357838 -0.402031 -0.842807
-3.466770 21.485500 1.456330 6 6 6 0.923063 0.050469 -0.381322
-3.469810 21.501801 2.699900 10 10 10 0.867543 -0.109659 -0.485124
-2.810190 22.641800 -1.949760 1 1 1 0.405317 0.086340 0.910090
-3.470620 21.508301 2.035850 33 33 33 0.877123 -0.027930 -0.479453
-3.268050 24.798000 -1.962640 19 19 19 -0.332889 -0.747662 0.574618
-2.819980 23.937201 2.735980 2 2 2 0.799242 -0.046061 -0.599241
-3.464610 26.036600 -1.855200 18 18 18 -0.945132 -0.247011 -0.213801
-2.734040 26.014200 2.855240 1 1 1 0.790743 -0.291390 -0.538347
-3.241630 27.829700 -0.995380 30 30 30 0.240406 -0.893783 -0.378626
-3.244140 27.848400 0.060558 31 31 31 0.093470 -0.995598 0.006971
-3.285590 27.893801 1.801480 24 24 24 -0.170585 -0.931612 0.320935
-1.117320 -14.494900 6.297120 63 63 63 0.155186 0.390292 -0.907518
-0.989285 -14.491300 5.707840 75 75 75 -0.022744 0.460046 -0.887604
-0.989336 -14.492400 5.792720 69 69 69 0.014117 0.451433 -0.892193
-0.709484 -10.596500 5.082780 2 2 2 0.990232 0.114176 0.080026
-1.439300 -8.510850 2.160080 68 68 68 -0.017246 0.987055 0.159450
-1.305690 -8.648350 3.802200 32 32 32 -0.043115 0.988610 -0.144190
-1.479080 -8.900540 7.758320 86 86 86 0.394522 0.918383 0.030415
-1.451720 -9.970990 8.771540 117 117 117 -0.023437 -0.214715 -0.976395
-1.120210 -8.791560 11.459700 2 2 2 0.969311 0.210983 0.126181
-1.246420 -9.781140 12.488300 4 4 4 0.127680 -0.102450 -0.986510
-1.458990 -8.737770 15.487100 7 7 7 -0.686634 0.701679 -0.190210
-1.455340 -8.522500 16.146400 86 86 86 -0.320229 0.488823 -0.811484
-1.467530 -8.868540 19.084000 48 48 48 -0.555028 0.830660 -0.044124
-1.453230 -9.064280 19.807699 77 77 77 -0.022563 -0.000486 -0.999745
-1.445590 -8.957270 23.454399 66 66 66 0.320630 0.050688 -0.945847
-1.399360 -8.823520 27.110001 51 51 51 -0.108969 -0.188769 -0.975957
-1.471160 -8.526010 30.497400 15 15 15 0.167629 0.792730 -0.586072
-1.339590 -8.360030 -1.549940 45 45 45 -0.036266 0.697590 0.715579
-1.466160 -8.471190 -0.189449 102 102 102 -0.072947 0.994119 -0.080036
-1.450180 -8.383110 1.804690 95 95 95 -0.010236 0.992653 0.120560
-1.456160 -8.488030 4.298600 41 41 41 -0.035046 0.995189 -0.091492
-1.450180 -8.460170 6.339820 53 53 53 -0.068749 0.980138 -0.186016
-1.449100 -8.460520 8.206140 75 75 75 -0.152337 0.874965 -0.459597
-1.372050 -7.957430 9.805000 68 68 68 0.091793 0.994228 -0.055539
-1.444030 -8.380370 12.008800 8 8 8 -0.552641 0.825695 0.113206
-1.274390 -7.938370 14.024100 53 53 53 0.207550 0.971391 -0.115426
-1.433840 -8.397170 16.102800 32 32 32 -0.303866 0.857522 -0.415115
-1.394280 -8.364950 19.758301 34 34 34 -0.214635 0.736649 -0.641311
-1.454780 -8.465780 19.809000 43 43 43 -0.227636 0.594683 -0.771060
-1.478400 -8.481350 21.977900 36 36 36 -0.145198 0.941730 0.303417
-1.467320 -8.428140 25.651199 32 32 32 0.169333 0.962073 0.213872
-1.297510 -8.459130 27.110100 48 48 48 -0.111835 0.861910 -0.494575
-1.422050 -8.365400 29.275801 28 28 28 0.158648 0.983862 0.082748
-1.450040 -8.468720 30.759600 39 39 39 0.137758 0.813236 -0.565394
-0.703930 -8.016040 33.772499 24 24 24 -0.020080 0.999683 -0.015157
-0.708231 -7.948730 33.822102 15 15 15 -0.029510 0.998910 -0.036154
-1.451950 -6.477740 -1.890550 60 60 60 -0.009397 0.015089 0.999842
-0.764009 -6.024440 0.268378 25 25 25 -0.353116 0.153436 0.922912
-0.267779 -6.408840 2.834100 49 49 49 -0.885939 0.263579 0.381626
-0.160385 -6.045140 4.208010 41 41 41 -0.897493 -0.035677 -0.439583
-1.456740 -4.455630 -2.049600 86 86 86 -0.006493 0.131022 0.991358
-0.313103 -4.419880 0.558038 48 48 48 -0.172522 0.150165 -0.973492
-0.202572 -4.454370 1.992080 37 37 37 0.519498 0.847666 -0.107634
-1.455580 -2.450360 -2.022660 22 22 22 -0.005434 -0.006979 0.999961
-1.456940 -0.447743 -2.023640 25 25 25 -0.003531 0.000243 0.999994
-1.462020 1.552410 -2.025650 29 29 29 -0.006776 0.017803 0.999819
-1.460800 3.543090 -2.102920 21 21 21 -0.008790 0.037145 0.999271
-1.463090 6.538200 -2.225160 23 23 23 -0.007514 0.041259 0.999120
-1.458560 5.530990 -2.172820 25 25 25 -0.008026 0.046721 0.998876
0.237909 7.222770 1.607520 17 17 17 0.038964 -0.634297 -0.772107
-1.458700 7.533130 -2.153420 48 48 48 0.014230 -0.175993 0.984289
-1.071860 8.456980 0.758514 24 24 24 0.089924 -0.127432 -0.987762
0.409005 9.497390 3.288030 21 21 21 0.252954 -0.405714 0.878300
-1.417540 9.551470 -2.121350 34 34 34 -0.052720 0.025359 0.998287
-0.165140 9.869860 0.654943 19 19 19 -0.083573 -0.109922 -0.990420
-0.778447 11.376500 2.904300 32 32 32 -0.093722 -0.778418 0.620711
-0.534218 11.047900 5.556080 57 57 57 -0.694225 0.249797 -0.675021
-1.474410 11.525100 -2.125890 34 34 34 -0.023286 -0.053949 0.998272
-0.211952 12.667700 0.825014 10 10 10 -0.983458 -0.163577 -0.077796
-1.210470 12.742600 2.904440 12 12 12 -0.086477 -0.455340 0.886108
-0.234094 12.052000 5.689740 15 15 15 -0.808607 0.109291 -0.578109
-0.270045 11.644000 6.039180 7 7 7 -0.905186 0.154393 -0.395981
-0.768659 13.507500 -2.047970 32 32 32 -0.097021 -0.057507 0.993620
-0.523150 14.704900 -0.196145 10 10 10 0.706580 -0.687442 0.167834
-1.458530 14.766400 3.557160 8 8 8 -0.189538 -0.979877 -0.062586
-1.458650 14.766600 3.794660 9 9 9 -0.158164 -0.987015 -0.028021
-0.615911 14.204500 7.550890 6 6 6 0.355419 -0.604999 0.712498
-1.471730 14.879100 7.905740 7 7 7 -0.134869 -0.977145 -0.164310
-0.272804 14.928700 9.808440 8 8 8 0.875815 -0.461269 -0.142050
-1.465970 14.987800 12.006700 6 6 6 -0.019531 -0.099860 -0.994810
-0.163114 14.989700 13.795000 6 6 6 0.777588 -0.620439 -0.102041
-1.341300 15.050400 16.660000 9 9 9 -0.082233 -0.970051 -0.228557
-1.479950 15.494500 18.107700 12 12 12 0.047095 -0.855469 0.515708
-1.467610 15.145900 21.007999 9 9 9 -0.117578 -0.375667 -0.919266
-1.468280 15.347300 22.255400 1 1 1 0.013389 -0.993214 0.115527
-1.466040 15.313700 24.031000 15 15 15 0.022825 -0.999738 0.002000
-1.408880 15.319200 25.793301 9 9 9 0.021790 -0.999743 0.006329
-1.408400 15.302700 27.789101 12 12 12 0.020319 -0.999384 -0.028601
-1.477910 15.399900 31.107000 7 7 7 -0.126999 -0.595025 -0.793610
0.232459 15.396500 31.841101 4 4 4 0.590102 -0.776641 -0.220473
-1.425080 15.449200 34.408699 7 7 7 -0.004237 -0.868908 -0.494956
-1.332800 15.493300 37.701199 7 7 7 -0.051780 -0.685885 -0.725866
-1.265670 15.392100 38.020500 6 6 6 0.008932 -0.788640 -0.614790
-1.467150 15.443000 41.023701 8 8 8 -0.070057 -0.267125 -0.961112
-1.316500 15.497600 44.306599 9 9 9 -0.037120 -0.403803 -0.914093
-1.435420 15.493800 47.635300 5 5 5 0.063563 -0.997716 0.022864
-0.964257 15.468300 47.903999 4 4 4 -0.014285 -0.932917 -0.359809
-1.241170 15.496600 50.952202 5 5 5 0.005963 -0.772266 -0.635272
-0.730653 16.025801 -1.999940 17 17 17 -0.855393 -0.186439 0.483263
-0.571429 15.513700 0.499006 5 5 5 0.475532 -0.669650 0.570472
-0.556492 16.189699 2.399960 14 14 14 -0.839768 -0.055123 -0.540140
-1.431500 15.918400 4.807800 11 11 11 0.101447 -0.829434 0.549316
-1.478530 16.199400 7.447580 38 38 38 0.213225 -0.809905 -0.546432
-1.458390 15.538800 7.880940 3 3 3 0.084519 -0.357918 -0.929920
-1.258130 16.234200 11.608200 30 30 30 0.052645 -0.353796 -0.933840
-1.459330 15.523600 11.999300 4 4 4 0.018440 -0.167773 -0.985653
0.330601 15.961200 13.802100 5 5 5 0.845200 -0.533926 0.023661
-1.463040 15.533700 16.647499 6 6 6 -0.009291 -0.289945 -0.956998
-1.297720 15.911300 18.589701 9 9 9 -0.020064 -0.793406 0.608361
-1.463200 15.508500 20.973101 6 6 6 -0.011560 -0.426027 -0.904637
0.518012 16.022800 21.903400 6 6 6 0.827801 -0.561017 0.002270
-1.282570 15.655100 29.096800 6 6 6 0.077418 -0.949786 0.303171
-1.325730 15.691100 30.016500 5 5 5 -0.113835 -0.982535 0.147198
-1.330120 15.727300 32.734798 4 4 4 0.157690 -0.972419 0.171856
-1.471370 15.522300 34.403801 7 7 7 -0.028660 -0.883483 -0.467585
-1.234570 15.746800 37.562801 4 4 4 -0.034665 -0.790775 -0.611125
-1.006610 15.591500 38.823101 1 1 1 0.122447 -0.992345 -0.016083
-1.476870 15.547100 40.988602 8 8 8 -0.075855 -0.178642 -0.980986
-1.012100 15.653000 42.147900 1 1 1 -0.010557 -0.999944 -0.000603
-1.477940 15.542200 44.283001 9 9 9 -0.015158 -0.548605 -0.835944
-1.362180 15.552600 47.601799 8 8 8 0.043238 -0.998101 0.043865
-0.912018 15.580600 48.704700 3 3 3 0.022691 -0.998842 -0.042425
-1.426270 15.594100 50.904499 9 9 9 0.036086 -0.960821 -0.274809
-0.485036 15.682700 51.802502 2 2 2 -0.025590 -0.999435 -0.021785
-1.426000 15.573700 54.204102 6 6 6 -0.058893 -0.082234 -0.994871
-1.454350 15.650600 57.509201 7 7 7 -0.000010 -0.890758 -0.454478
-1.208680 15.541600 57.928101 3 3 3 0.008025 -0.931659 -0.363244
-1.285260 15.746900 60.758301 6 6 6 -0.009437 -0.202595 -0.979217
-1.396550 16.099100 64.097702 9 9 9 0.050417 -0.998528 0.020022
-1.307990 15.744900 67.395500 7 7 7 0.013949 -0.998599 -0.051036
-1.164700 15.685600 67.977898 2 2 2 0.009685 -0.994769 -0.101692
-0.838945 16.069000 92.980797 11 11 11 0.031348 -0.999446 -0.011166
-0.828458 15.848700 93.808403 9 9 9 0.009784 -0.999881 -0.011954
-1.463480 18.370001 -1.980450 2 2 2 -0.231010 -0.125880 -0.964774
-1.346310 18.020300 3.486960 52 52 52 -0.055023 -0.344853 -0.937043
-0.832313 17.688200 7.406720 21 21 21 0.002680 -0.032945 -0.999454
-1.468290 17.523800 11.601800 28 28 28 -0.017357 -0.006892 -0.999826
-1.470470 17.513901 16.625900 127 127 127 0.103678 -0.085141 -0.990960
-1.471330 19.719601 -1.823890 17 17 17 0.074094 -0.031079 0.996767
-1.318730 19.656601 1.370540 49 49 49 0.025830 -0.937793 -0.346233
-1.253760 19.797600 2.570520 7 7 7 0.111602 -0.551647 -0.826578
-1.266850 20.381100 6.896900 17 17 17 -0.202223 0.062456 -0.977346
-1.385370 21.900700 -1.944800 1 1 1 0.193394 0.027555 0.980734
-1.458920 24.531799 -1.919780 18 18 18 -0.074264 -0.987208 0.141084
-1.196730 26.971901 -1.084890 8 8 8 -0.202733 -0.587332 0.783544
-0.995771 27.033899 0.904446 15 15 15 -0.690530 -0.718676 0.081688
-1.333050 27.694799 -1.089730 13 13 13 0.225700 -0.791607 0.567819
-1.333750 27.699800 0.234163 40 40 40 -0.205045 -0.907595 -0.366371
-1.368910 27.694300 2.057700 30 30 30 0.097433 -0.994881 0.026791
0.888824 -8.647910 0.538244 24 24 24 -0.114886 0.964579 0.237461
0.597872 -8.578310 3.710170 76 76 76 0.460540 0.816995 -0.347019
0.543236 -8.570940 3.798570 89 89 89 0.381367 0.809168 0.446996
0.682683 -8.862990 7.707110 73 73 73 0.676304 0.723316 -0.139381
0.637298 -9.899470 8.718730 118 118 118 -0.001302 -0.290825 -0.956775
0.624564 -9.023830 11.411000 5 5 5 -0.332803 0.935760 0.116598
0.748470 -9.747430 12.446400 7 7 7 0.090350 0.172165 -0.980916
0.681093 -9.046250 15.439800 50 50 50 -0.244525 0.946859 -0.208966
0.719908 -9.403720 16.084999 91 91 91 -0.054190 0.012959 -0.998447
0.753847 -9.121690 19.753599 75 75 75 -0.330681 0.060509 -0.941801
0.802715 -8.656120 19.796400 26 26 26 0.056613 0.554323 -0.830374
0.862520 -8.950950 23.393299 62 62 62 -0.124393 -0.023268 -0.991960
0.889540 -8.787120 27.057100 50 50 50 0.083785 -0.332864 -0.939245
1.604690 -8.521950 30.635000 16 16 16 -0.337399 0.909808 -0.241687
0.652669 -8.422090 -1.044090 77 77 77 0.241827 0.822562 0.514696
0.760612 -8.331170 1.707900 63 63 63 0.105625 0.953333 -0.282842
0.574864 -7.959710 3.437890 24 24 24 0.286525 0.741258 0.606992
0.545964 -8.451210 4.209650 21 21 21 0.328867 0.944272 0.014031
0.546512 -8.316720 6.359150 77 77 77 0.181554 0.983017 0.026744
0.555231 -8.467660 8.453820 87 87 87 0.465746 0.707410 -0.531650
0.549461 -8.233600 9.801510 68 68 68 0.247092 0.968990 0.001872
0.548537 -8.400420 12.396800 18 18 18 0.179248 0.268230 -0.946532
0.795219 -8.213300 13.800900 53 53 53 0.199609 0.972904 0.116681
0.616985 -8.347250 16.050100 27 27 27 0.326248 0.521862 -0.788176
0.635057 -8.330660 19.635300 6 6 6 0.578264 0.556289 -0.596786
0.644927 -8.192670 20.043100 34 34 34 0.319284 0.893305 -0.316328
0.726918 -8.317450 23.339399 9 9 9 0.012452 0.659818 -0.751322
0.759592 -8.112180 24.899599 7 7 7 -0.035034 0.994030 0.103331
0.768777 -8.219310 27.051901 54 54 54 0.061669 0.872783 -0.484198
0.840430 -8.114470 28.529200 13 13 13 -0.067066 0.988271 -0.137193
0.997209 -8.485120 30.658899 31 31 31 -0.160348 0.921781 -0.352998
1.957340 -8.085890 31.831699 5 5 5 -0.029826 0.988697 -0.146932
2.010690 -8.090500 35.088699 7 7 7 -0.029195 0.998520 0.045875
0.625093 -6.473850 -1.875200 58 58 58 0.075069 -0.061151 0.995302
0.573826 -6.027940 0.027865 22 22 22 -0.216738 0.046124 0.975139
0.610518 -5.538320 2.456720 35 35 35 -0.984407 0.175882 -0.002835
0.600595 -5.587050 4.332460 27 27 27 -0.070317 0.859841 0.505697
0.545735 -4.427170 -2.040020 93 93 93 -0.001952 0.117073 0.993121
0.733427 -4.365480 -0.094783 46 46 46 0.702338 0.133554 0.699203
0.544275 -4.430460 2.454170 45 45 45 -0.876963 -0.299143 -0.376098
0.545094 -2.243240 -2.011890 24 24 24 -0.002502 -0.004767 0.999986
0.523834 1.190460 -2.044300 11 11 11 -0.102704 0.078632 0.991599
0.542555 1.507510 -2.014730 129 129 129 -0.011613 0.075084 0.997110
2.445540 2.858770 8.108650 19 19 19 0.166026 -0.914387 -0.369233
0.542552 3.509900 -2.090290 21 21 21 -0.006759 0.043930 0.999012
1.987890 5.107920 2.860220 57 57 57 0.558961 -0.818163 0.134803
0.992510 4.789590 5.359790 42 42 42 0.219560 -0.975406 0.019421
1.618340 4.987650 6.391490 41 41 41 -0.246041 -0.955285 -0.163996
