ply
format ascii 1.0
element vertex 714
property float x
property float y
property float z
property uchar red
property uchar green
property uchar blue
property float nx
property float ny
property float nz
end_header
-7.041020 16.134701 2.002220 8 8 8 0.992293 -0.097674 -0.076247
-6.749680 16.167601 14.548300 54 54 54 0.320170 0.044297 -0.946324
-6.799740 20.031700 -0.026755 29 29 29 0.993490 0.106444 0.040594
-6.961350 18.640200 1.071110 8 8 8 0.981592 0.035973 0.187572
-7.040580 19.220200 2.001000 8 8 8 0.945457 -0.325657 -0.007607
-6.795610 20.186100 -0.091850 12 12 12 0.994977 0.082738 0.056356
-7.017140 21.107401 0.050839 26 26 26 0.980491 0.037766 -0.192900
-6.973200 21.061501 2.195570 12 12 12 0.991394 0.009646 -0.130556
-6.815610 22.164000 0.101812 17 17 17 0.985304 -0.162261 0.053359
-6.783400 22.156099 2.021410 35 35 35 0.989089 -0.144705 -0.027635
-6.487490 25.083099 1.036550 2 2 2 0.642246 0.130168 -0.755365
-6.595950 25.765699 2.321070 28 28 28 0.145204 -0.587925 -0.795776
-6.855600 26.507401 0.441114 9 9 9 -0.663657 -0.735028 0.138897
-6.833560 26.557501 2.022030 9 9 9 -0.677642 -0.733273 0.055784
-6.263820 29.330099 3.353870 1 1 1 0.909073 0.059576 -0.412356
-6.909090 31.203899 0.886604 8 8 8 0.953361 0.171069 -0.248672
-6.899900 32.114101 2.268510 9 9 9 0.998818 0.028108 -0.039655
-6.925440 32.235001 0.866964 9 9 9 0.999787 0.008897 -0.018615
-6.905610 32.140900 2.021470 9 9 9 0.997352 0.039214 -0.061248
-6.917040 34.283501 1.956550 9 9 9 0.999872 0.004888 -0.015214
-6.916160 34.279099 1.999280 10 10 10 0.999874 0.004776 -0.015138
-6.843450 37.033401 2.147170 29 29 29 0.972590 -0.053427 -0.226306
-5.919410 -11.645500 3.409920 100 100 100 0.028030 0.998272 0.051653
-5.932950 -11.635700 4.007350 107 107 107 0.000132 0.996225 -0.086803
-5.937270 -11.504900 6.009330 112 112 112 0.006325 0.999974 -0.003328
-5.910120 -11.489500 8.016880 73 73 73 -0.007628 0.999944 -0.007278
-5.931540 -11.463500 10.021100 124 124 124 -0.008075 0.999951 -0.005725
-5.803890 -11.536200 12.020200 93 93 93 0.074279 0.996805 0.029372
-5.793510 -11.447200 14.008300 48 48 48 -0.000860 0.999593 -0.028528
-5.714250 -8.655150 -1.727320 32 32 32 0.116346 0.804022 0.583105
-5.764460 -8.804340 0.017109 51 51 51 0.185020 0.982714 -0.006347
-5.785320 -9.394910 2.737530 100 100 100 0.147648 0.571230 0.807401
-5.790500 -7.634860 -1.776280 55 55 55 0.011289 0.046509 0.998854
-5.764820 -4.715430 -2.084370 76 76 76 -0.088713 0.192375 0.977303
-5.932190 -5.837730 -1.877590 42 42 42 -0.003098 0.064814 0.997893
-5.464670 -4.235220 0.092703 106 106 106 0.774482 -0.632595 -0.001336
-5.926620 -3.138490 -2.051040 23 23 23 -0.010072 -0.002865 0.999945
-5.226110 -3.853600 -0.628960 0 0 0 -0.572339 0.819902 -0.013745
-5.096180 -3.847750 0.010181 111 111 111 0.723257 -0.687654 -0.063484
-5.923290 -1.838810 -2.048380 22 22 22 -0.008445 -0.001585 0.999963
-5.915770 0.160149 -2.044870 24 24 24 -0.004515 0.000149 0.999990
-5.939810 2.313590 -2.077780 20 20 20 0.050754 0.008901 0.998672
-4.833740 3.873670 -1.961300 3 3 3 -0.160517 0.086390 0.983245
-5.897610 4.157160 -2.157760 22 22 22 -0.022839 0.022750 0.999480
-5.645150 4.959260 -1.756300 3 3 3 0.269191 0.304310 0.913746
-5.938630 6.365680 -2.279920 20 20 20 -0.006215 0.036856 0.999301
-5.947200 8.397250 -2.158780 47 47 47 -0.012628 -0.022544 0.999666
-5.910750 10.157200 -2.128840 34 34 34 -0.018339 -0.053805 0.998383
-5.947740 11.068900 -1.991870 22 22 22 0.007656 -0.355523 0.934636
-5.940780 12.050400 3.465500 106 106 106 0.092787 -0.768380 -0.633232
-5.948890 12.028200 4.011300 132 132 132 0.009442 -0.973357 -0.229099
-5.952720 12.033700 6.012110 122 122 122 0.005432 -0.999950 0.008390
-5.854230 12.225300 -1.403300 7 7 7 0.009738 -0.532336 0.846477
-5.098220 13.973100 0.006891 12 12 12 0.105501 -0.701881 0.704437
-5.915410 12.151900 3.451280 82 82 82 0.099419 -0.730664 -0.675459
-5.940240 12.558500 7.048020 14 14 14 0.317857 -0.643162 0.696642
-5.944770 12.523900 9.670670 105 105 105 0.526914 -0.841217 -0.121306
-5.942690 12.519100 10.006000 126 126 126 0.568724 -0.804604 -0.170779
-5.393820 13.687100 12.004700 57 57 57 0.033959 -0.889289 0.456083
-5.952860 12.615300 15.004900 167 167 167 0.548919 -0.489661 -0.677437
-5.946750 12.600300 16.500500 17 17 17 0.704727 -0.616307 0.351462
-5.951340 12.485900 18.003700 72 72 72 0.525738 -0.679438 -0.511824
-5.942790 12.546000 20.269800 101 101 101 0.690015 -0.485029 -0.537239
-5.943820 12.504400 22.898600 75 75 75 0.641513 -0.727408 -0.243595
-5.948620 12.553500 24.319300 70 70 70 0.608137 -0.783101 0.130086
-5.940080 12.614600 26.903700 15 15 15 0.648447 -0.754322 0.102545
-5.937610 12.485300 28.098600 86 86 86 0.670560 -0.679263 -0.298248
-5.942590 12.492700 30.699400 95 95 95 0.682714 -0.656185 -0.321438
-5.948010 12.460800 33.321098 71 71 71 0.693940 -0.719630 0.024068
-5.950430 12.586200 34.725800 20 20 20 0.621083 -0.783510 0.019165
-5.851450 12.497300 36.020599 39 39 39 0.643548 -0.762558 -0.065961
-5.955980 12.512300 38.491001 125 125 125 0.634408 -0.772927 -0.010555
-5.946760 12.449500 41.106499 96 96 96 0.660611 -0.750727 -0.001514
-5.915260 12.460900 43.709599 91 91 91 0.650863 -0.758362 -0.035560
-5.814600 12.409400 44.012402 9 9 9 0.704830 -0.705996 -0.069170
-5.932420 12.413700 46.319199 81 81 81 0.684338 -0.729087 0.010657
-5.342590 14.757200 -0.140169 1 1 1 0.102038 -0.262281 0.959581
-5.799940 14.154300 3.433560 64 64 64 0.369056 0.049253 -0.928101
-5.900970 14.141500 8.141710 30 30 30 0.274361 -0.950127 0.148270
-5.948470 14.201700 10.013800 126 126 126 0.335419 -0.934452 0.119551
-4.776710 14.230200 12.035000 46 46 46 0.962167 -0.081297 0.260049
-5.952040 14.152300 14.857700 111 111 111 0.239027 0.004466 -0.971003
-5.056140 14.162100 17.503099 2 2 2 0.048356 -0.084421 -0.995256
-4.440550 14.151400 19.659401 6 6 6 0.587388 -0.808604 -0.033704
-4.889130 14.135900 20.222000 7 7 7 0.421368 -0.067209 -0.904396
-4.876740 14.155900 22.025600 2 2 2 0.691426 -0.721384 0.039192
-4.734340 14.320000 24.679899 1 1 1 -0.184123 -0.982765 0.016491
-4.333680 14.172300 26.643200 2 2 2 0.630666 -0.766929 0.118657
-4.543150 14.152500 28.009501 25 25 25 0.584967 -0.733108 -0.346938
-4.609730 14.357300 30.035601 0 0 0 0.928303 0.324917 -0.180783
-4.495340 14.304200 32.542099 0 0 0 0.539628 -0.750353 -0.381802
-4.293010 14.150900 35.823299 147 147 147 0.606161 -0.745731 -0.276502
-4.040370 14.211800 36.924000 6 6 6 0.618632 -0.781809 0.077902
-4.253990 14.145000 38.430000 140 140 140 0.527047 -0.644672 -0.553733
-4.197050 14.145700 41.020699 145 145 145 0.620485 -0.762587 -0.182918
-4.146070 14.164700 43.627701 141 141 141 0.604252 -0.715295 -0.351045
-3.973610 14.166100 44.760300 3 3 3 0.633376 -0.769471 0.082154
-4.142380 14.147500 46.237598 134 134 134 0.606308 -0.792688 0.063532
-5.800570 16.452400 14.830800 76 76 76 0.102817 -0.015608 -0.994578
-4.623980 21.262300 1.078110 2 2 2 0.003861 0.034601 -0.999394
-4.783790 22.130699 1.113990 4 4 4 -0.051108 -0.448499 0.892321
-4.896690 25.774000 1.199080 64 64 64 -0.345453 -0.933768 0.093487
-5.537820 25.773899 2.220520 17 17 17 -0.462308 -0.756484 0.462604
-5.701220 26.532700 3.353750 5 5 5 -0.478230 -0.817943 0.319790
-5.741930 29.412701 3.335980 1 1 1 0.780839 0.018363 -0.624462
-4.210690 31.611799 -4.895100 25 25 25 0.353975 -0.907430 0.226433
-5.492850 30.140699 3.316960 1 1 1 0.773710 0.037972 -0.632401
-2.039760 -21.501301 1.017060 8 8 8 -0.857097 0.486267 -0.170087
-2.162490 -21.376600 2.007740 5 5 5 -0.814704 0.579753 0.011988
-2.066970 -19.221399 3.059900 10 10 10 -0.152188 0.906652 0.393473
-3.931340 -11.640500 3.416940 116 116 116 -0.030743 0.995307 0.091754
-3.929290 -11.635300 4.021410 105 105 105 -0.017155 0.996313 -0.084066
-3.922640 -11.474800 6.007320 162 162 162 -0.010202 0.999928 -0.006295
-3.935380 -11.468800 8.012110 157 157 157 -0.011992 0.999921 -0.003664
-3.929410 -11.455100 10.006800 130 130 130 -0.010434 0.999920 -0.007192
-3.823130 -11.525100 12.000800 89 89 89 -0.006643 0.999791 0.019343
-3.935120 -11.432300 14.000700 49 49 49 -0.008467 0.999531 -0.029421
-3.884640 -8.905360 -1.755260 8 8 8 0.037973 0.969964 0.240266
-3.931150 -8.920960 0.023507 137 137 137 -0.010683 0.994160 -0.107386
-3.930710 -9.398430 2.703280 38 38 38 0.038953 0.652082 0.757147
-1.979900 -8.851260 4.115810 41 41 41 0.300709 0.657032 0.691291
-3.934360 -7.833910 -1.782270 55 55 55 0.003083 0.037504 0.999292
-3.936810 -4.693480 -2.051660 90 90 90 -0.013293 0.129125 0.991539
-3.919020 -5.839500 -1.878660 32 32 32 -0.001397 0.050329 0.998732
-3.936710 -3.844870 -2.053360 27 27 27 0.089048 -0.096122 0.991378
-3.952270 -3.134960 -1.610880 5 5 5 0.856746 -0.511649 0.064821
-3.939110 -2.799730 0.040655 110 110 110 0.646669 -0.762449 -0.022157
-3.924680 -1.838040 -2.036090 22 22 22 -0.135058 0.176996 0.974901
-3.431800 -1.834360 -1.181010 85 85 85 0.821133 0.557528 -0.122077
-3.400680 -1.834610 0.019758 177 177 177 0.940505 0.326872 -0.092761
-3.942310 0.166192 -2.038720 19 19 19 -0.005506 -0.000282 0.999985
-3.955180 2.165130 -2.062810 22 22 22 -0.031189 0.005070 0.999501
-3.769280 3.020270 -1.535840 2 2 2 0.653487 0.750810 -0.096123
-3.942270 4.163090 -2.147860 23 23 23 0.142426 0.255591 0.956237
-3.773380 5.428920 -1.913000 5 5 5 0.043027 0.194988 0.979861
-3.937860 6.199480 -2.255530 21 21 21 -0.011740 0.096668 0.995247
-2.867200 7.025370 -1.819640 5 5 5 -0.354564 -0.510650 0.783276
-3.943430 8.157100 -2.136620 35 35 35 -0.013093 -0.034097 0.999333
-3.898850 10.402500 -2.088200 38 38 38 -0.006541 -0.085724 0.996297
-3.948050 11.081300 -1.985430 23 23 23 -0.075753 -0.327976 0.941644
-3.407900 11.762200 0.359743 13 13 13 -0.945565 -0.318148 -0.068477
-3.943520 12.060300 3.457200 120 120 120 0.005806 -0.424183 -0.905558
-3.942660 12.056900 4.009600 149 149 149 0.002114 -0.975119 -0.221671
-3.941540 12.050300 6.015600 143 143 143 0.009657 -0.999948 0.003388
-2.243620 12.108300 12.493400 27 27 27 -0.041182 -0.994150 -0.099848
-3.049230 12.171200 -2.076760 26 26 26 0.856984 0.005571 0.515313
-3.804310 12.208400 -1.431980 7 7 7 0.017725 -0.526501 0.849989
-3.458390 13.371400 0.569958 0 0 0 0.977262 -0.128585 0.168597
-3.806680 12.210300 3.422720 95 95 95 0.028856 -0.708413 -0.705208
-3.891970 12.533500 6.994780 12 12 12 0.007543 -0.789196 0.614096
-3.940850 13.780600 9.615840 105 105 105 0.028018 -0.854177 -0.519226
-3.939290 13.774300 10.008600 122 122 122 0.108454 -0.964190 -0.242024
-3.865820 12.329100 12.313000 36 36 36 0.037082 0.147546 -0.988360
-3.947340 14.127500 15.262400 81 81 81 0.627073 -0.686538 -0.368027
-3.945240 14.114800 17.702900 71 71 71 0.377004 -0.434706 -0.817862
-3.943460 14.105400 19.113501 23 23 23 0.651734 -0.747996 0.125479
-3.945940 14.112100 20.256901 75 75 75 0.520818 -0.678612 -0.517914
-3.946620 14.109300 22.867201 72 72 72 0.525156 -0.640045 -0.560851
-3.940220 14.083600 24.278500 21 21 21 0.501131 -0.809469 0.305987
-3.944700 14.094700 26.903999 46 46 46 0.541454 -0.805982 0.239207
-3.944230 14.090800 28.060900 70 70 70 0.567661 -0.571243 -0.592825
-3.941300 14.075500 30.706100 58 58 58 0.520785 -0.681928 -0.513574
-3.944710 14.083000 33.270599 73 73 73 0.606089 -0.792211 -0.071119
-3.950110 14.097500 35.835701 96 96 96 0.649937 -0.759855 0.014225
-3.875530 14.103100 36.064899 31 31 31 0.630540 -0.768658 -0.107627
-3.940100 14.057000 38.468498 66 66 66 0.632068 -0.771542 0.072199
-3.938540 14.047000 41.054901 68 68 68 0.669096 -0.740488 -0.063151
-3.941280 14.052300 43.660000 74 74 74 0.665808 -0.745901 0.018191
-3.949720 13.946300 43.999100 8 8 8 0.629417 -0.777050 0.005221
-3.937590 14.102000 46.244499 112 112 112 0.632324 -0.772484 -0.058611
-3.056920 14.320600 -2.437850 24 24 24 0.974101 -0.073401 -0.213867
-3.691200 14.573200 -0.361526 4 4 4 -0.194094 -0.454623 0.869278
-3.580810 14.519300 0.802179 5 5 5 -0.883526 -0.442793 -0.152696
-3.817170 14.307600 3.410990 70 70 70 -0.010940 -0.001936 -0.999938
-3.915440 14.164700 8.117570 37 37 37 0.002634 -0.993691 0.112119
-3.766180 14.764800 13.050900 29 29 29 0.610595 0.028987 -0.791412
-3.941050 14.312800 14.922800 165 165 165 0.625277 -0.710233 -0.323415
-3.940240 14.236000 16.471500 46 46 46 0.610581 -0.689213 0.390097
-3.951340 14.136000 18.050200 64 64 64 0.595622 -0.650776 -0.470878
-3.944630 14.175300 20.221399 100 100 100 0.561577 -0.680681 -0.470430
-3.916330 14.348800 22.823500 131 131 131 0.535944 -0.655887 -0.531578
-3.892450 14.258200 24.246599 27 27 27 0.522493 -0.797139 0.302607
-3.921730 14.149700 26.009300 15 15 15 0.587594 -0.797257 -0.138252
-3.938550 14.138200 28.038000 95 95 95 0.580171 -0.593788 -0.557509
-3.943530 14.151300 30.637501 116 116 116 0.533090 -0.669916 -0.516748
-3.840360 14.190400 33.250301 96 96 96 0.621729 -0.750483 -0.224114
-3.898950 14.262300 34.670898 14 14 14 0.600135 -0.799206 0.033277
-3.812970 14.154100 36.019100 37 37 37 0.626880 -0.776770 -0.060419
-3.778310 14.161100 38.565800 37 37 37 0.623295 -0.776803 0.089891
-3.952370 14.164500 41.020100 133 133 133 0.640840 -0.760807 -0.102458
-3.836300 14.301000 42.141102 4 4 4 0.587426 -0.807967 0.046049
-3.945240 14.200900 44.739399 4 4 4 0.640435 -0.763834 0.080006
-3.953690 14.160000 46.237598 131 131 131 0.624357 -0.780966 -0.016421
-2.471500 16.214001 -2.252790 1 1 1 -0.116345 0.104653 0.987680
-3.355930 17.079800 0.360852 39 39 39 -0.004801 -0.993763 0.111413
-2.742530 17.116199 2.006870 115 115 115 0.277854 -0.960598 -0.006925
-2.738500 16.137100 14.982800 97 97 97 -0.421816 0.389804 -0.818611
-2.241810 16.135599 19.001301 4 4 4 0.913895 -0.405247 -0.023900
-2.264510 16.144501 20.021299 4 4 4 0.559384 -0.364196 -0.744615
-2.097490 16.283199 22.011999 3 3 3 0.795083 -0.591077 -0.135907
-2.205490 16.147200 24.269899 3 3 3 0.796204 -0.578094 0.178515
-2.227910 16.151199 27.069000 3 3 3 0.500978 -0.842984 -0.195956
-2.132340 16.197201 29.744900 2 2 2 0.606781 -0.746848 -0.272092
-3.534910 19.677700 3.381760 54 54 54 0.228441 -0.167054 0.959118
-2.124100 20.180201 3.119690 13 13 13 0.924542 -0.020732 0.380515
-3.688520 31.643600 -5.181440 49 49 49 0.432938 -0.857656 0.277470
-3.795520 32.210499 -4.598240 41 41 41 -0.026552 -0.998916 -0.038229
-0.994585 -45.865501 -2.571650 189 189 189 -0.020262 0.993580 -0.111304
-0.994498 -45.865002 -1.993610 182 182 182 -0.024090 0.997348 -0.068679
-0.993693 -45.862400 0.024136 165 165 165 -0.359900 0.929991 -0.074758
-1.053740 -43.507099 -2.247560 5 5 5 0.992101 0.113983 0.052373
-1.049860 -43.348499 -1.967610 11 11 11 0.997022 0.077111 -0.001156
-1.041570 -43.035999 0.049702 10 10 10 0.973443 0.217270 -0.072134
-1.066040 -41.834801 -1.488050 13 13 13 0.996591 0.037942 -0.073259
-1.045660 -41.054199 0.037090 4 4 4 -0.998783 0.048058 0.011102
-1.060610 -39.675301 -0.226023 4 4 4 0.428950 0.275634 -0.860249
-1.060760 -39.687401 0.072030 8 8 8 -0.194369 0.361431 -0.911914
-1.057070 -37.765202 0.530317 19 19 19 0.099707 0.335260 -0.936835
-0.804540 -35.057400 -1.976760 39 39 39 -0.989200 0.050050 0.137760
-0.730718 -35.766300 1.018280 90 90 90 -0.042106 0.073173 -0.996430
-0.818497 -32.117802 -1.627870 16 16 16 0.961315 0.275452 0.000256
-0.974755 -33.328800 0.040591 44 44 44 0.397204 0.839286 -0.371252
-1.047440 -33.054798 2.015850 100 100 100 -0.016561 0.998788 0.046353
-0.965039 -33.039299 4.003580 104 104 104 -0.077798 0.995864 -0.046937
-1.091830 -31.861900 1.764390 33 33 33 0.986912 0.160921 0.010474
-1.089020 -31.784100 1.999700 35 35 35 0.990390 0.137939 -0.010014
-1.075960 -30.306299 4.245780 38 38 38 0.992826 0.117957 0.019568
-0.766054 -28.648800 -0.955053 11 11 11 0.945676 0.163603 0.280946
-1.233220 -28.633600 0.444632 67 67 67 0.941163 0.321964 0.102717
-1.305750 -28.647499 2.014930 104 104 104 0.962908 0.267477 -0.035562
-1.093390 -29.753599 4.006540 39 39 39 0.998939 0.034671 -0.030320
-0.738940 -26.388901 -0.458104 5 5 5 0.864236 0.042565 0.501282
-1.829040 -27.809200 0.523450 66 66 66 0.842777 0.524855 -0.119391
-1.757710 -27.808300 2.015840 53 53 53 0.812569 0.578392 -0.072076
-1.718580 -27.766600 3.998390 105 105 105 0.769631 0.635681 0.059815
-0.254322 -24.491100 -2.356880 3 3 3 -0.061728 0.168414 -0.983782
-0.680788 -24.312099 -0.452627 10 10 10 0.797972 0.060592 0.599641
-0.246904 -23.776100 -2.318250 2 2 2 -0.055072 0.135198 -0.989287
-0.468499 -22.897301 -1.594460 23 23 23 0.512059 -0.057717 0.857009
-1.009390 -22.136600 0.302001 62 62 62 0.930161 0.095180 0.354600
-0.214730 -20.675501 -2.199730 1 1 1 0.047342 0.039056 0.998115
-1.814800 -21.748699 1.196830 22 22 22 -0.942896 0.272324 -0.191801
-1.398690 -21.283899 3.705880 23 23 23 -0.962334 0.117557 0.245142
-1.347930 -20.513901 4.052100 39 39 39 -0.968081 0.129367 0.214670
-0.219141 -18.820801 -2.128730 1 1 1 0.030937 -0.040576 0.998697
-1.303870 -19.831100 1.599840 34 34 34 -0.995538 0.087772 0.034658
-1.323590 -19.759600 3.102680 34 34 34 0.997676 0.068133 -0.000965
-1.349790 -19.783400 3.999780 48 48 48 0.986625 -0.057781 -0.152420
-0.181691 -17.485201 -2.082330 2 2 2 0.025423 -0.042068 0.998791
-1.320310 -17.704800 1.571860 40 40 40 0.999398 -0.002529 0.034602
-1.377950 -17.867800 2.007460 70 70 70 0.999788 0.020331 -0.003148
-1.361860 -17.668699 4.001220 53 53 53 0.969732 0.020969 -0.243270
-0.237247 -15.351100 -1.945830 2 2 2 0.007799 -0.112553 0.993615
-1.389230 -15.705900 3.722810 58 58 58 0.754897 -0.075739 -0.651456
-1.382710 -15.861900 4.017980 55 55 55 0.524093 0.052541 -0.850039
-0.206381 -13.350500 -1.726360 35 35 35 -0.468872 0.326900 -0.820546
-0.627966 -12.715200 0.178299 22 22 22 0.964778 0.092769 0.246167
-1.268390 -13.754500 3.358620 53 53 53 0.960556 0.025475 -0.276916
-1.256270 -13.817100 4.011510 58 58 58 0.823494 -0.113470 -0.555861
-0.991046 -10.885700 -0.478799 15 15 15 0.717867 0.423281 0.552721
-1.053630 -11.736200 0.213172 7 7 7 0.855858 0.064504 0.513173
-1.917920 -11.618300 3.469770 120 120 120 0.209875 0.941220 0.264685
-1.916560 -11.611800 4.021050 108 108 108 0.308432 0.931534 -0.192649
-1.934870 -11.461100 6.017060 184 184 184 -0.029135 0.997325 0.067037
-1.945900 -11.444700 8.013880 52 52 52 -0.010640 0.999937 -0.003585
-1.898830 -11.436100 9.998720 126 126 126 -0.011908 0.999884 -0.009538
-1.821170 -11.513700 12.005900 96 96 96 -0.008172 0.999694 0.023350
-1.933000 -11.389900 14.018300 134 134 134 -0.011239 0.999778 -0.017809
-1.933880 -8.534900 -1.761730 49 49 49 -0.332252 0.802269 0.495956
-1.936610 -8.549810 0.019761 82 82 82 -0.225715 0.974164 -0.007582
-1.920670 -8.532930 2.221520 67 67 67 -0.494395 0.862482 -0.108160
-1.652790 -9.290160 4.622120 102 102 102 0.438713 0.646462 0.624194
-1.931170 -7.833710 -1.778900 59 59 59 -0.135858 0.120889 0.983325
-1.713740 -7.656300 1.003380 26 26 26 0.963828 0.063678 -0.258807
-1.456020 -7.838090 2.514380 1 1 1 0.990247 -0.128190 0.054567
-0.172901 -6.239280 4.014070 157 157 157 -0.118322 0.079670 -0.989774
-1.934460 -4.639380 -2.056160 41 41 41 0.010996 0.090837 0.995805
-1.932120 -5.837200 -1.884080 56 56 56 0.048180 0.073310 0.996145
-1.934880 -3.840450 -2.041380 24 24 24 -0.002567 -0.014104 0.999897
-1.932540 -1.835380 -2.028830 28 28 28 0.041174 0.008867 0.999113
-1.951730 0.166321 -2.027500 31 31 31 -0.002073 0.000705 0.999998
-1.937620 2.163020 -2.057070 27 27 27 -0.029282 -0.101360 0.994419
-1.791290 2.584330 -1.877180 27 27 27 0.324784 -0.426573 0.844128
-1.941330 4.161940 -2.138620 26 26 26 -0.003940 0.217334 0.976089
-1.761300 4.315750 -1.901300 8 8 8 0.016616 -0.470320 -0.882339
-1.945400 6.163210 -2.234780 20 20 20 -0.009382 0.060040 0.998152
-1.942650 8.144560 -2.112280 29 29 29 -0.013341 -0.040589 0.999087
-1.950590 10.131300 -2.077010 45 45 45 -0.010116 -0.018240 0.999782
-1.800190 11.710100 -1.380680 19 19 19 -0.100594 -0.718104 0.688628
-0.732485 11.315000 1.996070 110 110 110 0.543661 -0.377005 0.749867
-1.942520 11.300300 2.560890 99 99 99 0.197601 -0.043356 -0.979323
-1.951900 12.077800 4.007520 147 147 147 0.003067 -0.989405 -0.145147
-1.937270 12.077900 6.011390 148 148 148 0.010725 -0.999827 0.015188
-1.848190 11.588000 13.305400 32 32 32 0.465377 -0.558084 -0.686998
-0.474870 13.317000 -2.259800 1 1 1 -0.597820 -0.412319 0.687463
-1.898180 12.777200 -1.505750 2 2 2 -0.050823 -0.244297 0.968368
-0.750046 13.419800 1.921430 96 96 96 -0.685639 -0.146417 -0.713065
-1.948460 12.155600 3.403720 106 106 106 0.018591 -0.916443 0.399734
-1.901580 12.558500 6.956800 16 16 16 0.036986 -0.752830 0.657175
-1.950220 13.808000 9.573670 104 104 104 0.001549 -0.891627 -0.452769
-1.947590 13.787600 10.002800 117 117 117 -0.010601 -0.962421 -0.271356
-1.746370 12.231700 13.316800 7 7 7 -0.060649 -0.933902 -0.352347
-1.466960 12.248200 14.222100 11 11 11 0.596801 -0.666998 0.446031
-0.571054 15.461200 -2.281370 18 18 18 -0.092050 -0.552761 -0.828240
-1.800860 14.201700 -1.633160 31 31 31 -0.088815 -0.989181 -0.116758
-1.946710 14.203200 0.008444 39 39 39 0.017194 -0.996265 0.084622
-1.831750 14.150100 2.646000 61 61 61 0.568431 -0.160518 -0.806921
-1.952210 14.217100 8.272610 146 146 146 0.029059 -0.996260 0.081367
-1.693880 14.159600 13.109100 25 25 25 0.500109 0.545007 -0.672947
-1.825070 16.112801 14.490100 63 63 63 -0.296598 0.526936 -0.796472
-1.955780 15.810000 20.172600 119 119 119 0.505589 -0.649208 -0.568250
-1.946650 15.723700 22.814199 72 72 72 0.506492 -0.568904 -0.647931
-1.939740 15.827400 24.221800 61 61 61 0.668758 -0.720614 0.182972
-1.953740 15.763800 26.850599 71 71 71 0.717771 -0.688089 0.106483
-1.947210 15.705900 28.021700 69 69 69 0.578913 -0.663084 -0.474531
-1.937700 15.783300 30.596001 119 119 119 0.617878 -0.689157 -0.378536
-1.951720 15.726000 32.072201 54 54 54 0.698869 -0.713018 0.056452
-1.951210 15.707000 35.802200 93 93 93 0.680262 -0.728685 -0.079131
-1.939770 15.612800 36.200298 7 7 7 0.621746 -0.772120 -0.131385
-1.938480 15.591500 38.787399 9 9 9 0.598663 -0.760555 -0.251314
-1.942020 15.610500 41.345901 21 21 21 0.642427 -0.764122 -0.058353
-1.943880 15.615900 43.822102 25 25 25 0.654310 -0.755924 0.021397
-1.954040 15.536800 43.997299 5 5 5 0.652749 -0.757563 -0.004223
-1.936650 15.712900 46.219799 106 106 106 0.648239 -0.761254 -0.016674
-1.616800 16.158400 -2.792240 22 22 22 0.010928 -0.612833 -0.790137
-0.637184 16.150900 -1.980980 61 61 61 0.044807 -0.290568 -0.955805
-1.719020 16.140301 0.830297 32 32 32 0.537487 -0.103057 0.836951
-1.731450 16.448299 3.033850 17 17 17 -0.134605 -0.602575 -0.786629
-1.890920 16.153700 14.487400 70 70 70 -0.319717 0.535415 -0.781737
-1.879820 16.382900 20.109699 4 4 4 0.542520 -0.438635 -0.716430
-1.876620 16.166100 22.200300 2 2 2 0.641117 -0.767389 -0.009101
-1.934590 16.300301 24.752800 3 3 3 0.681438 -0.719398 -0.134568
-1.943500 16.365499 27.084200 2 2 2 0.501458 -0.856450 -0.122609
-1.543490 16.298901 29.986601 8 8 8 0.612977 -0.788072 -0.056582
-1.741700 16.207399 30.073601 17 17 17 0.611206 -0.781956 -0.122363
-1.899550 16.139999 33.192501 146 146 146 0.570353 -0.725519 -0.385124
-1.880660 16.322001 35.046398 1 1 1 0.698022 -0.607848 -0.378531
-1.348420 16.143101 36.065601 30 30 30 0.603156 -0.758536 -0.246630
-1.638040 16.163401 38.385799 147 147 147 0.469340 -0.584141 -0.662192
-1.741570 16.156200 40.978500 139 139 139 0.590663 -0.707166 -0.388629
-1.701380 16.156401 43.585800 140 140 140 0.664389 -0.717767 -0.208322
-1.365400 16.299101 44.720798 4 4 4 0.646453 -0.759804 0.069250
-1.556650 16.137100 46.196602 121 121 121 0.678443 -0.734600 0.008859
-1.361440 18.842400 1.192040 14 14 14 -0.552547 -0.046720 -0.832171
-1.702570 18.908100 3.362350 8 8 8 -0.508269 -0.321290 0.799021
-1.607420 21.863600 1.252660 48 48 48 -0.351397 -0.251361 -0.901852
-1.704000 23.993200 3.341500 5 5 5 -0.350776 -0.191331 0.916705
0.266055 -45.834900 -3.580400 29 29 29 -0.130588 0.991433 -0.002747
0.092880 -45.833500 -1.978830 212 212 212 -0.024996 0.999642 -0.009504
0.146975 -45.230701 0.019169 255 255 255 -0.037625 0.653069 -0.756363
0.075847 -37.835400 0.599650 159 159 159 0.051304 0.530566 -0.846090
0.612840 -35.747799 0.975649 111 111 111 -0.039455 0.111615 -0.992968
0.193000 -33.454300 1.046510 59 59 59 -0.004895 0.796319 -0.604857
0.065657 -33.025200 2.017640 138 138 138 -0.018254 0.999829 -0.003099
0.147484 -33.033600 4.005530 104 104 104 -0.009906 0.985302 -0.170536
0.122584 -27.024401 -2.477860 3 3 3 0.038798 -0.045739 0.998200
0.084184 -25.641100 -2.410330 3 3 3 -0.083005 0.093633 -0.992141
0.200210 -23.841299 -2.329650 3 3 3 -0.081949 0.124889 -0.988781
0.181298 -21.586599 -2.273100 0 0 0 0.080347 0.066069 0.994575
0.204143 -18.777201 -2.180360 1 1 1 0.003013 -0.035589 0.999362
1.782200 -18.466900 3.549620 39 39 39 -0.136520 -0.052238 -0.989259
0.511523 -17.207701 -2.077300 3 3 3 0.028417 -0.049046 0.998392
0.500129 -16.890800 3.647630 52 52 52 -0.243008 -0.034156 -0.969423
0.128212 -15.484400 3.650790 71 71 71 -0.408266 -0.003577 -0.912856
1.424100 -12.308900 -1.961150 10 10 10 0.262090 -0.044765 0.964005
0.096732 -13.859900 3.622690 87 87 87 -0.351189 0.032831 -0.935729
0.054044 -12.338100 4.007230 167 167 167 -0.427069 0.221145 -0.876759
0.283347 -9.945650 -1.837360 26 26 26 0.174095 -0.029292 0.984293
0.204551 -11.189000 3.921940 29 29 29 -0.320602 0.056374 -0.945535
0.265136 -11.453600 5.606720 32 32 32 -0.027633 0.992745 -0.117024
0.108818 -11.698600 7.963720 5 5 5 0.069602 0.997505 -0.011794
0.094182 -11.704600 8.016180 5 5 5 0.058185 0.998238 -0.011648
0.075844 -11.418500 10.015700 144 144 144 0.014316 0.953643 -0.300599
0.089926 -11.484100 12.005700 75 75 75 0.011619 0.999889 -0.009313
0.073303 -11.393700 14.015900 48 48 48 -0.008162 0.999713 -0.022504
0.280798 -9.856120 -1.833320 26 26 26 0.143453 -0.023918 0.989368
0.207121 -9.435900 3.880600 47 47 47 0.050384 -0.072956 -0.996062
0.196692 -9.511180 4.825660 30 30 30 -0.101078 0.897996 0.428237
0.072155 -7.441200 -1.828110 42 42 42 -0.000591 0.062062 0.998072
0.153477 -6.298060 3.617770 19 19 19 0.072040 -0.235887 -0.969107
0.063828 -7.840110 4.069770 69 69 69 0.201578 0.159207 -0.966447
0.067457 -5.031180 -2.009180 53 53 53 -0.003015 0.086540 0.996244
0.064241 -5.866420 -1.929770 42 42 42 -0.002481 0.080401 0.996760
0.071809 -3.625380 -2.026300 25 25 25 -0.004317 -0.018837 0.999813
1.028930 -1.953240 -1.885390 4 4 4 -0.148756 0.280500 0.948257
0.063310 -1.630080 -2.023400 26 26 26 -0.012543 0.013564 0.999829
0.943796 -0.770966 -1.630760 34 34 34 -0.015166 -0.490258 0.871445
0.062331 1.107730 -2.030610 15 15 15 -0.030278 0.017420 0.999390
0.462250 1.115010 -2.002800 7 7 7 -0.070663 0.078056 0.994442
0.062108 2.162730 -2.048970 26 26 26 -0.006803 0.041495 0.999116
0.109480 4.160880 -2.126740 28 28 28 -0.004209 0.036520 0.999324
0.062343 6.263090 -2.228900 21 21 21 -0.002325 0.053113 0.998586
0.762395 6.853740 3.022210 122 122 122 -0.287214 -0.429329 -0.856262
0.608325 6.683600 3.999920 77 77 77 0.097925 -0.977719 -0.185680
0.061363 8.165410 -2.102300 37 37 37 0.002028 -0.032436 0.999472
0.459778 8.286420 1.716300 55 55 55 -0.745517 -0.200526 0.635605
0.459920 8.286790 2.023150 58 58 58 0.050905 -0.335235 -0.940758
0.780775 9.366970 4.370950 10 10 10 0.962864 -0.265041 0.051436
0.101798 10.165000 -2.060800 41 41 41 0.008822 -0.026466 0.999611
1.011460 10.998500 -1.585540 101 101 101 -0.001307 -0.925983 0.377563
0.428826 10.314200 1.710450 32 32 32 0.994096 -0.025523 -0.105459
0.093277 12.106900 3.370950 117 117 117 -0.219503 0.023742 -0.975323
0.108619 12.102000 4.020780 150 150 150 0.010253 -0.997134 -0.074958
0.109659 12.107400 6.019470 137 137 137 0.015698 -0.999835 0.009106
0.160988 11.098500 13.336200 33 33 33 0.073757 0.367016 -0.927286
1.038030 11.849800 14.040200 29 29 29 0.326935 -0.072421 -0.942268
0.093233 12.349500 -2.028680 8 8 8 -0.090139 -0.065620 0.993765
0.157413 12.549900 -1.981210 52 52 52 -0.084471 -0.046931 0.995320
1.357820 12.646300 1.838230 29 29 29 -0.383674 0.052571 -0.921971
0.111019 12.410700 3.359140 92 92 92 -0.133287 -0.436202 -0.889923
1.752870 12.130000 5.672170 138 138 138 0.012016 -0.999911 0.005720
0.129519 12.554000 6.887640 6 6 6 0.039402 -0.777048 0.628207
0.109467 13.819600 9.565070 111 111 111 0.007157 -0.871750 -0.489899
0.057148 13.821200 10.013600 127 127 127 0.016554 -0.982799 -0.183934
0.260334 12.552800 13.917700 20 20 20 0.086286 0.236274 -0.967848
0.398381 12.444500 14.017900 33 33 33 0.095245 0.307907 -0.946637
0.248800 14.144700 -1.781940 8 8 8 0.015735 -0.999597 -0.023637
0.107570 14.145200 0.022881 153 153 153 0.043069 -0.989995 0.134371
0.108685 14.136900 3.349470 80 80 80 -0.064399 -0.007654 -0.997895
0.253266 14.165600 7.994030 15 15 15 0.015545 -0.993708 0.110922
0.271807 14.188300 8.010590 20 20 20 0.014395 -0.996377 0.083824
0.291654 14.171400 11.968800 50 50 50 0.674260 -0.704189 0.222468
0.291949 14.182800 12.009700 45 45 45 0.742539 -0.641041 0.194169
1.264880 14.250600 14.271400 14 14 14 -0.947830 0.063213 -0.312445
0.245927 16.226299 0.421928 29 29 29 0.020161 -0.427959 0.903573
0.293673 16.593000 3.123340 47 47 47 -0.548530 -0.098966 -0.830253
0.055379 17.499100 21.560801 25 25 25 0.555125 -0.829329 0.063638
0.055753 17.362400 22.820299 61 61 61 0.469818 -0.613860 -0.634388
0.057132 17.355801 25.355900 66 66 66 0.496114 -0.700335 -0.513227
0.058756 17.459801 27.920700 130 130 130 0.537681 -0.729012 -0.423605
0.080648 17.358200 28.010000 53 53 53 0.493590 -0.636262 -0.592907
0.081999 17.361099 30.612000 52 52 52 0.584237 -0.787312 -0.196996
0.061150 17.359301 33.160900 78 78 78 0.603335 -0.743649 -0.288051
0.062459 17.363001 35.746601 96 96 96 0.616810 -0.783396 -0.076400
0.150854 17.379101 36.007702 32 32 32 0.616592 -0.770674 -0.160860
0.085729 17.334801 38.371101 75 75 75 0.616682 -0.783756 -0.073685
0.087060 17.342300 40.964699 75 75 75 0.626537 -0.777363 0.056197
0.088314 17.353600 43.557999 92 92 92 0.615066 -0.788375 0.012580
0.633135 17.946800 44.714901 3 3 3 0.585363 -0.810547 0.019058
0.067411 17.340599 46.163399 91 91 91 0.617022 -0.785209 -0.052267
1.007600 18.176901 1.016950 28 28 28 0.782424 -0.305140 0.542865
0.139086 18.140900 3.322910 11 11 11 0.547030 0.131955 -0.826647
0.149801 18.152100 22.712000 8 8 8 0.039233 -0.269860 -0.962100
0.561633 18.155800 25.311501 129 129 129 0.429119 -0.897071 -0.105453
1.040960 18.131500 26.061300 57 57 57 0.621567 -0.782084 -0.044698
1.042210 18.134501 28.046499 64 64 64 0.636096 -0.768647 -0.067553
0.701018 18.136900 30.517099 135 135 135 0.569291 -0.820714 -0.048330
0.336988 18.144199 32.538502 2 2 2 0.282520 -0.928862 -0.239577
0.611780 18.136999 35.723499 135 135 135 0.595746 -0.689790 -0.411432
1.286970 18.305599 36.012100 37 37 37 0.640987 -0.759664 -0.109754
0.796396 18.146099 38.333099 139 139 139 0.622271 -0.782595 -0.017980
0.683850 18.145300 40.923599 133 133 133 0.655663 -0.744968 0.122998
0.870288 18.199200 43.523701 132 132 132 0.618223 -0.770481 -0.155431
1.289790 18.288099 44.321201 16 16 16 0.634493 -0.768545 -0.082199
0.937788 18.157000 46.122299 130 130 130 0.626661 -0.778005 0.044779
1.002000 22.716999 3.284200 7 7 7 0.303661 -0.453265 0.838057
2.282090 -45.803001 -3.779490 109 109 109 -0.049654 0.998454 -0.024997
2.280870 -45.792999 -1.988190 181 181 181 0.039258 0.997806 -0.053310
2.104080 -45.703098 0.010766 167 167 167 -0.005647 0.999200 -0.039601
2.157160 -37.601501 0.569705 96 96 96 -0.046031 0.291792 -0.955374
2.183810 -34.974701 0.970585 82 82 82 -0.022330 0.065815 -0.997582
2.128860 -33.424999 1.001360 94 94 94 0.016041 0.807849 -0.589171
2.142940 -33.003601 2.019520 89 89 89 -0.010115 0.999947 -0.001907
2.101550 -33.012199 3.999410 103 103 103 -0.007743 0.995861 -0.090555
2.099480 -27.044399 -2.520650 3 3 3 0.006953 -0.047528 0.998846
2.046560 -25.529900 -2.428660 3 3 3 0.012433 -0.033401 0.999365
2.094130 -23.862700 -2.405980 2 2 2 0.022793 -0.027968 0.999349
3.819690 -21.873800 3.538810 9 9 9 -0.084563 -0.091180 -0.992238
2.066100 -21.674101 -2.309860 1 1 1 0.022633 -0.039592 0.998960
3.760600 -21.858000 3.549020 7 7 7 -0.086965 -0.092332 -0.991923
2.137210 -19.104900 -2.213750 1 1 1 0.024141 -0.039615 0.998923
2.162360 -18.508600 3.494950 32 32 32 -0.133563 -0.049623 -0.989797
2.095750 -17.728600 -2.150710 1 1 1 0.023842 -0.041470 0.998855
2.105620 -17.636299 3.460750 42 42 42 -0.138518 -0.051105 -0.989040
2.792730 -15.522000 -2.072690 4 4 4 0.023040 -0.039679 0.998947
2.275670 -15.835500 3.355140 68 68 68 -0.138548 -0.029030 -0.989930
2.281250 -12.678500 -1.989940 13 13 13 0.176659 -0.018530 0.984098
2.268930 -13.600200 3.322580 89 89 89 -0.134551 -0.010215 -0.990854
2.067740 -12.300700 3.999200 61 61 61 -0.057022 0.851257 -0.521641
2.046020 -11.370700 -1.933650 21 21 21 0.007784 -0.053354 0.998545
2.085770 -11.774300 3.871590 19 19 19 -0.148023 0.310148 -0.939094
2.175960 -11.445600 4.422650 36 36 36 -0.728261 0.665296 -0.164372
2.166220 -11.643700 7.668190 2 2 2 -0.019877 0.998773 -0.045356
2.285540 -11.634500 8.021070 1 1 1 -0.009224 0.999951 -0.003460
2.072390 -11.383700 10.016800 142 142 142 -0.010425 0.990321 -0.138404
2.219510 -11.462200 12.017800 103 103 103 0.004071 0.999950 -0.009083
2.122220 -11.349400 14.016100 112 112 112 -0.014295 0.999569 -0.025652
2.171560 -9.619890 -1.847440 19 19 19 0.007813 -0.058068 0.998282
2.188370 -9.427230 3.622420 37 37 37 -0.023533 -0.120343 -0.992453
2.216740 -9.286030 4.242020 48 48 48 0.221599 0.534764 0.815427
2.064320 -7.847560 -1.782450 27 27 27 -0.004922 0.042383 0.999089
2.173430 -6.296870 3.372750 18 18 18 0.015835 0.735023 0.677857
2.507970 -6.689730 4.223200 6 6 6 0.055055 0.727148 0.684269
2.075530 -4.687560 -2.026540 45 45 45 -0.131707 -0.034367 0.990693
2.067460 -5.637580 -1.926540 35 35 35 -0.072392 0.032979 0.996831
2.056570 -3.602920 -2.010060 24 24 24 0.041639 0.049359 0.997913
2.266440 -3.382710 -2.002970 20 20 20 0.096205 0.064686 0.993257
2.066460 -1.831730 -2.003960 30 30 30 -0.063629 0.065944 0.995793
2.121960 -0.880740 -1.995550 17 17 17 -0.083875 -0.757533 0.647386
2.289390 -0.136223 0.007240 4 4 4 -0.782347 0.612557 0.112727
2.058590 1.217650 -2.003640 90 90 90 0.003242 0.519988 0.854167
2.224540 0.292145 -1.329160 11 11 11 -0.091994 -0.046393 0.994678
2.059830 2.372600 -2.036950 24 24 24 -0.010485 0.039868 0.999150
2.101290 4.615710 -2.126700 23 23 23 -0.009758 0.043309 0.999014
2.054380 6.139450 -2.203040 22 22 22 -0.009564 0.058583 0.998237
2.361520 6.478810 2.469090 157 157 157 -0.135810 -0.904028 0.405327
2.510140 6.803940 4.012780 122 122 122 0.008940 -0.997496 0.070155
2.054970 8.131270 -2.091120 34 34 34 -0.007927 -0.056576 0.998367
2.056330 8.307290 1.668880 44 44 44 -0.017094 -0.367903 0.929707
2.055690 8.304170 2.016630 62 62 62 0.005257 -0.908991 -0.416782
2.062310 10.386500 -2.054030 31 31 31 -0.002033 -0.207355 0.978264
2.088150 10.944600 -1.677450 22 22 22 -0.121896 -0.897307 0.424243
2.197500 10.249200 1.622660 36 36 36 -0.018567 0.002301 -0.999825
2.081670 10.205700 3.171130 40 40 40 0.486438 -0.506843 0.711680
2.047320 12.123000 4.023410 152 152 152 -0.026233 -0.981513 0.189590
2.301780 12.129500 6.514190 91 91 91 0.013200 -0.924067 0.382003
2.604410 12.043800 13.281300 21 21 21 -0.763563 -0.641772 0.071412
2.058500 11.792300 14.141800 31 31 31 -0.220883 -0.361652 -0.905770
2.286990 12.155600 -2.012650 13 13 13 -0.118184 -0.007872 0.992961
2.058490 13.547400 -1.436790 15 15 15 -0.385392 -0.859368 0.336096
3.277820 12.437900 0.310570 12 12 12 -0.749244 -0.327177 -0.575837
2.359550 14.085800 2.015150 11 11 11 -0.975318 -0.172478 0.137863
2.049440 12.132000 5.261960 140 140 140 0.012758 -0.999883 0.008480
2.050050 12.133200 6.009540 138 138 138 0.034532 -0.982573 0.182640
2.057670 13.858000 9.509090 107 107 107 0.036218 -0.864506 -0.501316
2.055670 13.842700 10.020300 116 116 116 0.030507 -0.982918 -0.181500
2.161030 12.384100 13.560000 24 24 24 -0.881748 0.061947 -0.467636
2.243600 12.131800 14.171700 21 21 21 -0.205110 -0.802666 -0.560051
2.045850 14.177200 -0.480081 6 6 6 -0.136088 -0.672174 0.727779
2.062440 14.167500 0.009665 7 7 7 -0.002835 -0.579560 0.814925
2.574880 16.116199 2.168570 67 67 67 0.082498 -0.991978 0.095784
2.194800 14.172900 7.950930 12 12 12 -0.002598 -0.989085 0.147323
2.151110 14.249700 8.018960 53 53 53 -0.016948 -0.998843 0.044994
2.083880 14.400000 11.844300 40 40 40 -0.154217 -0.874670 0.459532
2.154150 14.249000 13.223300 20 20 20 -0.266313 -0.190678 -0.944838
2.749050 15.530100 14.872600 15 15 15 0.552178 -0.832090 0.052205
2.953960 16.136299 1.789690 8 8 8 0.063384 -0.975690 0.209789
2.292170 16.316999 2.009510 10 10 10 0.008916 -0.918418 0.395511
3.549420 16.130301 13.305800 29 29 29 -0.121005 0.332063 -0.935463
2.057880 19.066500 22.684299 105 105 105 0.614281 -0.788682 -0.025278
2.110430 19.108101 24.145800 76 76 76 0.650200 -0.751163 0.113997
2.056850 19.029600 27.891500 103 103 103 0.500230 -0.578240 -0.644522
2.049270 18.958401 28.010900 60 60 60 0.470630 -0.500910 -0.726358
2.061630 19.061399 30.490900 125 125 125 0.613295 -0.710025 -0.346027
2.062510 19.056700 33.099201 125 125 125 0.677638 -0.731414 -0.076420
2.061320 19.033300 35.694000 121 121 121 0.696402 -0.717644 -0.003412
2.728670 19.472799 36.014801 27 27 27 0.569209 -0.700578 -0.430339
2.061870 19.025999 38.292400 120 120 120 0.657919 -0.751493 -0.048992
2.088910 19.046301 40.900501 131 131 131 0.641337 -0.767227 0.007094
2.064600 19.027901 43.495899 127 127 127 0.644884 -0.762831 -0.047037
2.048840 19.095400 46.095798 128 128 128 0.642034 -0.763574 0.068898
2.819270 20.165800 25.223600 13 13 13 0.247424 -0.397487 -0.883621
2.894330 20.130800 27.857201 113 113 113 0.507045 -0.678000 -0.532186
3.309440 20.133801 29.302999 9 9 9 0.620643 -0.783369 0.033687
2.463000 20.175900 30.071699 11 11 11 0.343803 -0.574175 -0.743050
3.054540 20.151100 33.073002 139 139 139 0.612260 -0.788950 0.051931
2.566200 20.153200 35.662300 40 40 40 -0.339045 0.361849 -0.868397
3.341140 20.138500 38.267601 135 135 135 0.558090 -0.745891 -0.363568
3.109100 20.140900 40.867401 129 129 129 0.473749 -0.666895 -0.575163
3.316170 20.130100 43.464199 129 129 129 0.591613 -0.783637 -0.189489
3.243890 20.158001 46.073700 126 126 126 0.603866 -0.793910 0.071080
4.248910 -45.791698 -4.033120 24 24 24 0.018586 0.999811 -0.005762
4.076660 -45.792099 -3.988130 67 67 67 0.050338 0.998706 -0.007236
4.188650 -45.763500 -1.989850 167 167 167 -0.003654 0.999981 -0.004926
4.073610 -45.773102 0.003595 164 164 164 -0.008891 0.999905 0.010530
4.128560 -37.347099 0.516417 125 125 125 -0.058797 0.273046 -0.960203
4.690710 -35.118900 -3.139760 14 14 14 -0.850049 0.490238 0.192570
4.255360 -34.153999 0.920825 23 23 23 -0.038069 0.248343 -0.967924
4.161750 -33.402699 0.942897 71 71 71 0.071605 0.660148 -0.747714
4.150790 -32.984600 2.006950 71 71 71 -0.000618 0.999982 -0.005928
4.067080 -32.988998 4.007070 100 100 100 -0.019548 0.990159 -0.138578
4.082440 -26.277399 -2.494710 0 0 0 0.002879 -0.028470 0.999591
4.068820 -24.751900 -2.470100 1 1 1 0.023870 -0.028982 0.999295
4.069570 -23.121000 -2.375100 0 0 0 0.008705 -0.033007 0.999417
4.598390 -22.620300 3.581450 9 9 9 -0.092783 -0.116561 -0.988840
4.122060 -21.811800 -2.343720 1 1 1 0.017446 -0.035684 0.999211
4.243460 -21.860001 3.503020 10 10 10 -0.084384 -0.112578 -0.990053
4.372650 -17.997700 -2.211280 4 4 4 0.013556 -0.036140 0.999255
4.207560 -16.767300 -2.182470 1 1 1 0.025338 -0.030727 0.999207
4.278670 -16.191500 3.094200 60 60 60 -0.133119 -0.030701 -0.990624
5.291250 -16.257700 11.314300 7 7 7 -0.156365 0.136674 -0.978198
4.108400 -15.540400 -2.079640 1 1 1 0.021002 -0.049186 0.998569
4.191340 -15.861100 3.095050 61 61 61 -0.131022 -0.023462 -0.991102
4.781940 -14.570200 11.307400 8 8 8 -0.010077 -0.005144 -0.999936
5.101830 -13.289500 -2.017060 6 6 6 0.012022 -0.043176 0.998995
5.933860 -12.960100 -2.001450 4 4 4 -0.021683 -0.085340 0.996116
4.238330 -13.834800 3.061580 84 84 84 -0.129963 -0.005182 -0.991505
4.840310 -12.076000 9.561610 1 1 1 0.522157 0.361960 -0.772229
4.209600 -12.456200 10.302900 2 2 2 -0.063212 -0.244890 -0.967488
4.136830 -10.088200 -1.859060 14 14 14 -0.002765 -0.048408 0.998824
4.093770 -11.761600 3.611940 22 22 22 -0.088451 0.357590 -0.929680
4.113810 -11.403800 5.071990 28 28 28 0.021165 0.984436 0.174464
4.326290 -11.407700 6.008790 40 40 40 0.034468 0.998620 0.039620
4.149200 -11.835400 9.823700 5 5 5 0.138936 0.524488 -0.840006
4.107480 -11.396400 11.119800 72 72 72 -0.001291 0.997862 0.065341
4.125890 -11.449000 12.016200 83 83 83 -0.009703 0.999798 -0.017625
4.119280 -11.345200 14.020000 49 49 49 -0.009429 0.999852 -0.014410
4.061730 -9.869700 -1.849770 18 18 18 -0.002273 -0.049561 0.998769
4.083130 -9.385690 3.370520 25 25 25 0.030125 0.039833 -0.998752
4.274710 -9.793320 4.244390 18 18 18 0.125570 0.441692 0.888335
4.195810 -7.684890 -1.779300 28 28 28 -0.008227 0.039342 0.999192
4.205780 -7.823920 3.859350 33 33 33 -0.236567 0.329606 -0.914000
4.069830 -4.678140 -2.004680 43 43 43 -0.008737 0.046627 0.998874
4.067050 -5.616420 -1.909200 32 32 32 -0.009150 0.075069 0.997136
4.261780 -3.816940 -1.992690 24 24 24 0.033080 -0.044635 0.998456
4.074250 -1.631880 -1.988720 23 23 23 0.018044 -0.083879 0.996313
4.060230 2.126650 -2.004890 23 23 23 -0.008786 0.034404 0.999369
4.060560 0.668312 -0.635955 11 11 11 -0.348300 0.285340 0.892899
4.060930 2.373730 -2.014880 23 23 23 -0.008723 0.038856 0.999207
5.512060 2.368600 -2.003110 22 22 22 -0.015160 0.071843 0.997301
4.061940 4.369530 -2.098980 23 23 23 -0.008265 0.043070 0.999038
4.060750 6.398470 -2.206880 22 22 22 -0.004769 0.061889 0.998072
4.166630 6.314050 2.172440 94 94 94 -0.069432 -0.912311 0.403570
4.286370 6.730920 4.005410 142 142 142 0.082239 -0.987925 0.131304
4.059660 8.380130 -2.074570 27 27 27 -0.004094 -0.021837 0.999753
4.061730 8.326870 1.668430 54 54 54 -0.086185 -0.983033 0.161920
4.062050 8.327220 2.019160 62 62 62 0.017889 -0.870791 -0.491328
4.193520 10.142400 -2.048120 35 35 35 -0.004602 -0.011993 0.999918
4.086730 11.622700 -0.081086 14 14 14 -0.041897 -0.917272 -0.396051
4.218240 10.198800 1.619870 47 47 47 -0.023276 0.003735 -0.999722
4.250820 10.239600 3.132290 75 75 75 -0.541884 -0.531953 0.650683
4.108620 10.955400 13.363600 31 31 31 -0.174730 0.361018 -0.916043
4.161460 11.955900 15.112500 31 31 31 -0.091108 -0.992606 0.080198
4.099320 12.147100 -2.006370 12 12 12 0.036857 -0.241961 0.969586
4.160380 12.587400 -1.994180 67 67 67 0.039117 -0.127377 0.991083
5.269770 13.554600 0.419716 95 95 95 0.542868 -0.828298 -0.138622
4.104960 12.157400 3.764870 119 119 119 0.017527 -0.992831 0.118232
4.050820 12.146700 4.006690 138 138 138 0.018809 -0.973235 0.229042
4.055240 12.156300 6.371470 93 93 93 -0.070056 -0.983244 0.168298
4.051330 13.859900 9.519340 109 109 109 -0.005848 -0.910548 -0.413363
4.051750 13.860200 10.020600 109 109 109 0.007364 -0.993880 -0.110221
4.254210 12.225300 13.756500 16 16 16 0.377589 -0.507587 -0.774456
4.625610 12.146200 15.223300 31 31 31 -0.646858 -0.441187 -0.622036
4.291000 14.233200 -1.478980 0 0 0 0.033499 -0.998796 -0.035832
4.056280 16.043900 0.217044 14 14 14 0.166023 -0.977041 0.133516
5.914420 14.823500 2.007990 22 22 22 -0.845110 -0.511838 0.154309
4.152870 14.211000 7.943700 18 18 18 0.029248 -0.992801 0.116149
4.096490 14.284300 8.022400 89 89 89 0.056263 -0.998128 0.023990
4.045550 14.301700 11.740900 23 23 23 0.026975 -0.924922 0.379199
4.101530 14.362000 12.467300 58 58 58 -0.090879 -0.944458 0.315816
4.192820 16.324301 0.212578 12 12 12 0.312292 -0.947600 -0.067295
4.541870 21.001200 23.989901 56 56 56 0.537056 -0.841728 0.055364
4.052300 20.603500 25.327801 54 54 54 0.593259 -0.786400 -0.172102
4.052960 20.599501 27.932600 51 51 51 0.593080 -0.767220 -0.244190
4.051770 20.593300 27.999201 51 51 51 0.571686 -0.747562 -0.338121
4.055060 20.602800 30.571699 45 45 45 0.598993 -0.791476 -0.121543
4.052880 20.583900 33.243500 42 42 42 0.586053 -0.799266 -0.133098
4.052090 20.711901 35.654499 130 130 130 0.543516 -0.837245 -0.060091
4.534520 20.935600 36.070301 32 32 32 0.594500 -0.799185 -0.088736
4.141550 20.609100 38.422001 37 37 37 0.583857 -0.807068 -0.088050
4.053860 20.707199 40.854599 127 127 127 0.564794 -0.823688 -0.050449
4.073630 20.663000 43.452900 123 123 123 0.584908 -0.810930 -0.016599
5.038890 21.298201 44.058399 23 23 23 0.628848 -0.773202 -0.081905
4.073380 20.655100 46.064098 119 119 119 0.611464 -0.789926 0.046140
5.288510 22.141100 27.789700 30 30 30 0.644329 -0.501117 -0.577687
5.972680 22.260599 29.265600 44 44 44 0.654730 -0.755778 0.011337
5.765990 22.155001 30.422899 128 128 128 0.644945 -0.735639 -0.207079
5.556100 22.140600 33.043098 128 128 128 0.730091 -0.670254 -0.133142
5.503900 22.164000 35.627800 127 127 127 0.711089 -0.617090 -0.336976
5.556360 22.130199 38.234798 127 127 127 0.737735 -0.675057 0.006747
5.744540 22.163200 40.822800 126 126 126 0.707294 -0.702786 -0.076334
5.845270 22.205700 43.421501 126 126 126 0.683320 -0.728869 -0.042713
5.803240 22.153200 46.031898 118 118 118 0.641147 -0.764713 0.064372
6.115420 -45.785702 -4.036370 72 72 72 -0.008270 0.999924 -0.009156
6.115430 -45.785801 -3.976430 127 127 127 -0.008018 0.999917 -0.010076
6.052490 -45.758400 -1.979720 158 158 158 -0.007995 0.999940 -0.007532
6.169660 -45.766102 0.021022 57 57 57 -0.009463 0.999835 0.015526
6.200300 -37.146400 0.488013 127 127 127 -0.051670 0.321693 -0.945433
6.278740 -35.680901 0.896395 32 32 32 0.035427 0.172103 -0.984442
6.327300 -33.249699 -2.853660 128 128 128 -0.999048 0.014403 0.041173
6.327880 -33.254002 -1.999920 117 117 117 -0.997066 0.061456 0.045626
6.134190 -33.381599 0.990209 42 42 42 -0.487620 0.422922 -0.763783
6.103770 -32.987499 2.023100 97 97 97 -0.471641 0.881710 0.011880
6.099660 -32.969398 4.017490 104 104 104 -0.461194 0.884228 -0.073769
6.356010 -31.662100 -2.634910 37 37 37 -0.999747 -0.018768 0.012422
6.362590 -31.696501 -1.985440 37 37 37 -0.999337 -0.017666 0.031820
6.433220 -31.843201 0.483233 24 24 24 -0.999478 -0.029641 0.012861
6.445330 -31.700100 2.018130 59 59 59 -0.999537 -0.027559 0.012926
6.482380 -31.683901 4.263040 53 53 53 -0.998796 0.048924 0.003646
6.334870 -29.806801 -2.494990 42 42 42 -0.770543 0.382182 0.510098
6.335040 -29.808500 -1.994580 45 45 45 -0.792804 0.604649 0.076563
6.447130 -29.788099 0.008129 71 71 71 -0.143646 0.979800 0.139129
6.411260 -29.806299 2.010710 86 86 86 -0.219617 0.974910 0.036314
6.443930 -29.779499 4.008540 91 91 91 -0.653730 0.580983 -0.484866
6.273180 -27.472900 -2.481160 13 13 13 0.014680 0.147739 0.988917
6.787720 -25.808701 -2.460370 1 1 1 0.000665 -0.016628 0.999862
6.732630 -24.240101 3.565790 11 11 11 -0.081413 -0.112908 -0.990264
6.192020 -22.957500 -2.378440 1 1 1 0.001906 -0.018930 0.999819
6.192980 -22.627701 3.407110 2 2 2 -0.082347 -0.104540 -0.991106
6.224030 -21.062000 -2.352360 1 1 1 0.008799 -0.039498 0.999181
6.064630 -21.835100 3.328260 2 2 2 -0.085088 -0.112217 -0.990034
6.284280 -19.792801 -2.298860 3 3 3 0.007376 -0.037419 0.999272
6.638910 -19.705500 3.043920 10 10 10 -0.065922 -0.118874 -0.990719
6.132610 -17.681000 -2.216440 1 1 1 0.015593 -0.041167 0.999031
6.509970 -15.880800 2.815560 48 48 48 -0.115452 -0.024093 -0.993021
6.070610 -16.966801 10.800700 10 10 10 0.032767 0.763394 -0.645101
6.442270 -14.070700 -2.054580 3 3 3 0.020795 -0.043799 0.998824
6.278180 -15.315400 2.822200 60 60 60 -0.118138 -0.017590 -0.992841
6.076940 -15.846300 11.298000 7 7 7 -0.013907 -0.005061 -0.999891
7.169250 -13.170700 -2.014850 1 1 1 -0.036569 -0.063850 0.997289
6.201670 -13.824100 2.813630 77 77 77 -0.120442 -0.008433 -0.992685
6.066800 -13.858800 11.296700 6 6 6 0.010029 -0.119402 -0.992795
6.490380 -10.585700 -1.890150 8 8 8 -0.044220 -0.063195 0.997021
6.064500 -11.735300 3.346950 20 20 20 -0.177632 0.363483 -0.914509
6.238100 -11.397200 4.822720 30 30 30 0.026283 0.999197 0.030250
6.280070 -11.648900 7.164880 2 2 2 -0.075337 0.988385 -0.131985
6.255890 -11.605100 8.018360 1 1 1 0.075120 0.996821 -0.026536
6.169410 -11.414400 11.220300 88 88 88 -0.002441 0.998376 0.056923
6.189860 -11.419100 12.019400 73 73 73 0.000562 0.999945 -0.010476
6.175130 -11.326900 14.002400 45 45 45 -0.016221 0.999721 -0.017163
6.122080 -8.545170 -1.771570 14 14 14 -0.002765 -0.024193 0.999703
6.204110 -9.707230 3.966110 47 47 47 0.373336 0.377070 -0.847607
6.173100 -9.713030 4.115900 27 27 27 0.713929 0.669554 -0.204946
6.064380 -7.545800 -1.776990 35 35 35 -0.004130 0.046826 0.998895
