ply
format ascii 1.0
element vertex 706
property float x
property float y
property float z
property uchar red
property uchar green
property uchar blue
property float nx
property float ny
property float nz
end_header
8.718620 12.266700 3.661050 71 71 71 0.013612 -0.997133 -0.074437
8.728610 12.279200 5.655690 110 110 110 -0.013105 -0.999343 0.033781
8.774440 12.480200 -1.032700 55 55 55 0.007842 -0.486263 0.873777
8.737080 13.187800 -0.341709 3 3 3 0.001490 -0.969460 0.245245
8.907590 13.012800 3.101410 42 42 42 0.135754 -0.315633 -0.939120
9.666200 12.731100 6.676450 7 7 7 -0.018476 -0.878385 0.477597
8.876240 14.232300 7.664580 21 21 21 -0.000229 -0.813305 0.581838
9.404840 14.032700 9.969270 57 57 57 0.088716 -0.817764 -0.568676
8.982850 15.294900 -3.441790 255 255 255 -0.626842 -0.526299 -0.574525
10.006600 14.463000 0.014635 0 0 0 -0.827379 0.270903 0.491992
8.935160 14.656200 2.993870 6 6 6 -0.433012 -0.155811 0.887819
8.725340 14.762900 8.003310 72 72 72 0.005778 -0.943843 0.330345
10.437800 14.760600 9.648640 98 98 98 0.089086 -0.969969 -0.226326
8.817950 16.594900 2.664150 6 6 6 0.026667 0.063423 -0.997630
8.795420 19.084299 2.819680 5 5 5 -0.039936 -0.262801 -0.964023
8.710820 23.486601 0.958492 11 11 11 0.112888 -0.993516 0.013476
8.708750 23.480200 1.651620 63 63 63 0.030426 -0.998548 -0.044448
9.444060 25.761600 -0.458167 6 6 6 0.074768 -0.621473 -0.779860
9.818220 26.930799 41.868698 71 71 71 0.010773 -0.997033 0.076224
10.706200 -35.193298 8.212990 5 5 5 0.149423 0.796790 -0.585490
10.727400 -31.790300 11.412900 3 3 3 -0.047221 0.651222 -0.757417
12.033100 -31.793301 14.098300 3 3 3 0.000378 -0.119707 -0.992809
10.780900 -31.556101 11.496600 3 3 3 -0.114721 0.868401 -0.482410
10.750000 -31.084000 11.769700 5 5 5 0.168311 0.945713 -0.278026
10.716300 -30.612801 13.828900 4 4 4 0.001194 0.263756 -0.964589
11.337300 -27.607201 -0.602450 9 9 9 -0.912840 0.127220 0.387993
11.341700 -27.618500 -0.116778 9 9 9 -0.656947 0.427864 0.620768
10.921300 -29.527100 14.158200 6 6 6 -0.002959 0.233650 -0.972316
10.858600 -26.534700 -1.580920 44 44 44 -0.913155 0.005518 0.407575
11.003300 -27.283100 1.001650 2 2 2 -0.555325 0.829869 -0.054146
11.162400 -26.425800 3.364180 24 24 24 -0.193707 0.903586 -0.382113
10.709400 -26.372700 11.281300 50 50 50 -0.088097 0.995916 -0.019775
10.781500 -26.359699 11.642700 3 3 3 -0.101318 0.994531 0.025353
10.694700 -27.524799 14.632100 6 6 6 -0.088882 0.550388 -0.830164
10.785700 -26.665300 17.125099 7 7 7 -0.101718 0.907370 0.407839
10.858400 -25.344200 -1.629860 3 3 3 -0.187760 0.331290 0.924658
11.655700 -22.309999 -1.732480 4 4 4 -0.043359 0.061520 0.997164
12.420100 -18.621700 0.834644 0 0 0 -0.048439 0.845823 -0.531260
10.819400 -17.878500 2.961270 101 101 101 -0.229116 0.972999 0.027894
11.625600 -16.516800 2.314040 39 39 39 -0.138778 0.325719 0.935226
11.081600 -14.062400 1.543930 7 7 7 -0.489344 0.872088 -0.002426
10.760600 -15.328200 2.198700 21 21 21 -0.457740 0.347749 0.818257
12.396000 -13.709200 6.736590 32 32 32 -0.536688 -0.539039 -0.649156
10.805100 -13.932000 9.138530 74 74 74 -0.535448 0.603410 0.590924
12.223800 -12.820400 4.861880 4 4 4 -0.640409 -0.444493 -0.626341
11.045700 -12.185600 6.748360 3 3 3 -0.628825 -0.651173 -0.424914
11.124400 -13.552300 8.938970 3 3 3 -0.469246 0.596167 0.651454
11.608300 -9.897850 -0.487780 29 29 29 0.344509 0.570598 0.745474
10.696100 -9.964880 -0.183014 38 38 38 0.455784 0.720374 0.522803
10.755900 -11.483200 6.314260 0 0 0 -0.650935 -0.698390 -0.297549
10.899700 -9.436540 -0.742285 20 20 20 0.344344 0.437615 0.830614
10.706400 -9.411780 -0.332562 22 22 22 -0.055283 0.659429 0.749731
12.434600 -7.866750 2.865540 42 42 42 -0.943811 -0.326668 0.050079
10.867200 -5.988090 -1.619950 34 34 34 -0.022356 0.065200 0.997622
11.602000 -6.299880 0.869437 20 20 20 -0.787085 0.576208 -0.220185
11.230900 -5.631750 2.216550 14 14 14 -0.754040 0.656408 0.023504
11.144500 -5.747840 4.354800 26 26 26 -0.498784 0.703965 -0.505616
10.715100 -5.187290 -1.678440 30 30 30 -0.027095 0.138581 0.989980
10.932800 -4.992100 1.242860 25 25 25 0.085273 0.932696 -0.350438
11.382600 -5.318710 1.646120 39 39 39 -0.826470 -0.145196 -0.543934
11.436800 -5.557160 4.530800 4 4 4 -0.750226 0.394405 -0.530665
10.730800 -3.483080 -1.827790 15 15 15 -0.291192 0.264000 -0.919517
10.789700 -3.161170 -0.034440 2 2 2 -0.338792 -0.929530 0.145582
12.144000 0.064965 -0.891837 3 3 3 -0.570447 -0.160102 0.805579
12.178200 -1.070530 0.946760 0 0 0 -0.851285 0.472061 -0.229066
10.894300 0.440694 3.221730 4 4 4 -0.215568 -0.663436 0.716508
10.723800 2.387050 -0.919672 0 0 0 -0.254005 0.598132 0.760078
11.321300 1.928870 -0.372270 8 8 8 -0.307933 0.490957 0.814947
10.827400 0.451907 3.109830 4 4 4 -0.210113 -0.712099 0.669901
10.740200 2.134370 5.363580 25 25 25 -0.382380 -0.921075 0.073528
11.392600 1.688610 5.975530 38 38 38 -0.018261 -0.996378 0.083057
12.180800 2.103140 7.783650 43 43 43 -0.138193 -0.913061 0.383696
10.929300 2.447220 -0.841599 0 0 0 -0.314524 0.612862 0.724897
10.735000 3.836970 4.666360 45 45 45 0.290155 -0.088753 -0.952855
12.648200 2.463910 7.214290 31 31 31 -0.625196 0.702460 -0.340116
10.964100 2.523440 7.781660 48 48 48 0.135669 0.847590 -0.513016
11.918100 3.299290 11.521500 0 0 0 -0.246791 0.009580 -0.969021
12.562500 3.090040 11.622600 4 4 4 -0.175871 -0.931455 -0.318528
10.734100 4.520190 4.519890 53 53 53 0.310918 -0.121451 -0.942645
12.010700 4.898210 6.059120 48 48 48 0.131226 -0.933957 -0.332423
11.435000 7.862550 -0.389618 19 19 19 0.105251 -0.976277 0.189223
11.434100 7.861910 -0.336806 17 17 17 0.106705 -0.974593 0.196935
10.828400 6.556050 4.620560 41 41 41 -0.072311 0.540928 -0.837954
10.708000 6.722020 7.566030 41 41 41 -0.790092 -0.483554 -0.376736
10.734400 7.277920 7.634410 67 67 67 -0.623856 -0.421290 -0.658269
10.751600 8.876640 5.067410 5 5 5 -0.006631 -0.219425 -0.975607
10.912700 8.579370 6.551360 69 69 69 0.599866 -0.783158 -0.163780
10.691400 8.779220 9.091950 42 42 42 -0.203605 0.785316 -0.584657
10.752500 9.529490 9.642140 32 32 32 -0.229596 0.721402 -0.653349
10.702800 11.968700 -1.992720 15 15 15 -0.034207 -0.964250 0.262779
10.715300 12.195800 -0.346589 2 2 2 -0.076809 -0.978128 0.193303
10.702500 12.304700 3.171670 77 77 77 -0.018379 -0.998766 -0.046129
10.727000 12.268900 3.670300 64 64 64 -0.001063 -0.999913 -0.013119
10.737000 12.279100 5.668780 104 104 104 -0.004957 -0.999778 0.020491
12.302800 10.850000 9.479620 15 15 15 -0.499450 0.562056 -0.659274
10.724500 12.552500 0.130952 1 1 1 -0.044268 -0.662383 0.747856
11.868900 14.360000 1.667280 2 2 2 -0.076634 -0.925797 0.370171
10.874300 12.723800 6.699420 1 1 1 -0.014742 -0.853801 0.520390
10.922200 14.235800 7.703640 9 9 9 -0.040833 -0.844242 0.534404
10.717000 14.038900 9.917340 103 103 103 -0.082108 -0.843747 -0.530423
10.710000 14.911000 1.479790 1 1 1 -0.275241 -0.356366 0.892886
10.784300 14.469000 2.958590 61 61 61 -0.272080 -0.408997 -0.871030
10.726400 14.772200 8.720510 116 116 116 -0.008775 -0.987387 0.158083
11.432600 16.976500 1.371140 16 16 16 -0.836196 0.408587 0.365832
10.786600 17.252001 2.897560 7 7 7 -0.473100 0.140416 -0.869747
11.673100 18.934500 0.572032 2 2 2 -0.854360 -0.509203 -0.103829
11.924800 18.500401 1.670490 2 2 2 -0.997556 0.037488 -0.058962
11.010300 22.321199 3.151280 0 0 0 -0.449227 -0.462642 -0.764302
10.707600 23.469101 1.117730 25 25 25 -0.002772 -0.998991 0.044836
10.765000 23.437401 1.686320 11 11 11 -0.059785 -0.992109 0.110208
10.929000 24.941299 2.799560 1 1 1 0.424530 -0.299084 0.854589
11.667000 27.953800 2.484660 16 16 16 -0.729399 0.160147 0.665079
11.777600 26.756901 27.668699 87 87 87 -0.134987 -0.975271 0.175002
12.599500 26.860901 30.246099 95 95 95 -0.229267 -0.970786 0.070794
14.036300 -31.662500 4.263630 2 2 2 -0.862245 -0.071324 0.501445
14.042200 -31.462000 4.220500 4 4 4 -0.860590 -0.079075 0.503122
12.908600 -31.113199 14.018300 4 4 4 0.025835 -0.030557 -0.999199
12.738800 -29.545200 14.124700 5 5 5 -0.017791 0.266170 -0.963762
14.643800 -25.702801 -1.403810 72 72 72 0.086277 0.495258 0.864451
14.042200 -26.961100 -0.287929 13 13 13 0.010815 0.734548 0.678471
13.426300 -26.021700 3.215920 2 2 2 -0.208085 0.906522 -0.367312
12.933000 -25.945601 10.665600 68 68 68 -0.205547 0.974095 -0.094286
12.742100 -27.351500 14.643500 5 5 5 -0.112661 0.466254 -0.877448
12.743400 -26.314301 17.171700 7 7 7 -0.225730 0.876539 0.425117
13.099100 -23.961201 -1.659010 4 4 4 -0.032413 0.113823 0.992972
14.533800 -25.445101 10.746300 85 85 85 -0.233385 0.964541 0.123257
13.920100 -25.554899 15.405800 135 135 135 -0.489225 0.809310 -0.325079
13.913500 -25.543600 15.963500 149 149 149 -0.360081 0.925056 0.120883
13.053100 -23.113899 -1.671250 2 2 2 -0.050755 0.086835 0.994929
12.721200 -17.185400 2.815740 16 16 16 -0.284441 0.690659 0.664894
13.511500 -14.640800 1.565540 3 3 3 -0.223148 0.285303 0.932098
13.510500 -14.529000 1.641840 6 6 6 -0.196063 0.286188 0.937900
12.834000 -14.594800 8.928090 3 3 3 -0.109920 0.747588 0.655003
13.939200 -11.825200 -0.825447 105 105 105 -0.105592 0.170542 0.979676
13.702100 -12.136800 -0.248710 19 19 19 0.207324 0.266279 0.941335
13.433000 -13.163000 2.344640 30 30 30 0.281612 0.945617 0.162799
12.868300 -12.204600 4.162550 13 13 13 -0.462581 0.098603 -0.881077
13.245400 -12.594500 5.853780 20 20 20 -0.612419 -0.689581 -0.386551
14.484600 -10.243100 -1.382410 63 63 63 -0.690881 0.084348 0.718031
13.340800 -10.344700 1.350590 12 12 12 -0.437368 0.699786 -0.564809
13.779200 -9.954960 1.649500 44 44 44 -0.481561 0.799965 -0.357988
13.413800 -9.847270 3.970090 15 15 15 -0.823589 -0.125747 -0.553072
12.830000 -8.762100 -1.428460 5 5 5 0.050960 0.235886 0.970444
13.639700 -9.166200 1.855040 26 26 26 0.160059 0.980023 -0.118051
13.647600 -9.449050 3.820640 35 35 35 -0.901399 -0.217917 -0.374156
12.735600 -5.949680 -1.581590 34 34 34 -0.000207 -0.194864 0.980830
12.917500 -6.764670 3.632240 2 2 2 -0.782025 -0.521162 0.341800
12.720000 -5.367690 -1.627660 33 33 33 0.036058 0.176218 0.983691
12.719300 -5.106670 0.192681 45 45 45 -0.138338 0.811567 -0.567645
12.697300 -4.950850 3.064770 11 11 11 -0.364896 0.894997 0.256576
12.731600 -4.872800 3.698370 32 32 32 -0.427698 0.889579 0.160387
12.912200 0.085427 -0.870397 1 1 1 -0.231842 -0.113096 0.966156
13.071200 -1.016280 -0.368918 5 5 5 -0.639184 0.419137 0.644801
12.928400 2.102770 -0.878792 1 1 1 -0.112308 -0.224925 -0.967882
12.708000 1.640290 5.290010 43 43 43 -0.062181 -0.973934 0.218144
12.818800 1.653870 6.677720 39 39 39 -0.137439 -0.933854 0.330193
13.384900 2.430880 10.867500 4 4 4 -0.710025 0.298248 -0.637898
12.843000 3.302700 -0.730381 0 0 0 -0.245460 0.762754 0.598294
13.120100 4.030420 5.254110 34 34 34 0.181157 -0.288347 -0.940233
12.847500 2.451920 7.599650 42 42 42 -0.349430 0.836526 -0.422046
12.923800 2.449610 7.647940 29 29 29 -0.318202 0.848788 -0.422263
12.881800 2.692080 11.233800 44 44 44 -0.064024 -0.030637 -0.997478
12.791300 3.351720 11.943600 10 10 10 -0.045216 -0.972037 0.230435
12.940800 5.606420 -1.998330 10 10 10 -0.409528 0.414655 0.812618
13.429900 5.320770 5.071730 142 142 142 0.065885 -0.643916 -0.762254
13.640700 4.454280 5.861040 44 44 44 0.026449 -0.658256 -0.752329
13.348700 6.242140 8.711460 56 56 56 -0.502016 -0.632505 -0.589845
14.251200 8.148090 -1.079110 96 96 96 0.173606 -0.977884 0.116636
14.189500 8.184290 -0.145375 82 82 82 -0.804495 -0.593230 0.029433
13.472900 8.437660 3.610110 86 86 86 -0.537333 -0.832157 -0.137071
12.729700 7.086590 4.764750 34 34 34 -0.097069 0.127564 -0.987069
13.623900 6.923050 7.421190 39 39 39 -0.730261 -0.587500 -0.348658
13.587800 6.649340 7.722000 80 80 80 -0.787479 -0.424658 0.446702
14.166900 8.457710 1.057970 34 34 34 -0.939089 -0.343661 -0.003093
13.436500 8.509740 3.507450 114 114 114 -0.450725 -0.888951 -0.081320
12.927700 8.672290 5.005150 61 61 61 -0.773169 -0.186559 -0.606139
12.811600 9.337000 7.194150 26 26 26 0.325734 -0.854409 0.404825
12.928900 10.058800 8.213900 25 25 25 -0.658195 0.564517 -0.498097
12.712600 11.888800 -1.735510 57 57 57 0.274613 -0.751501 0.599861
14.690900 12.382800 1.105390 115 115 115 -0.843311 -0.536329 -0.034307
12.739100 12.276600 3.254920 87 87 87 0.048780 -0.998465 -0.026229
12.731900 12.269500 3.667640 92 92 92 0.003671 -0.999769 0.021160
12.710900 12.278800 5.654700 92 92 92 0.001170 -0.999958 0.009096
13.176800 10.683700 9.213890 36 36 36 -0.663110 0.727919 -0.174410
12.922200 11.167000 10.300000 30 30 30 -0.463470 0.569120 -0.679190
12.936300 12.500200 -1.433050 59 59 59 0.214358 -0.640088 0.737792
12.715000 12.726100 0.051137 2 2 2 0.224880 -0.745740 0.627137
13.562000 12.971400 3.251940 22 22 22 -0.172260 -0.497768 -0.850031
12.837300 12.780300 6.792510 16 16 16 0.043900 -0.820950 0.569310
13.037800 13.997300 7.634220 4 4 4 -0.020674 -0.694465 0.719229
12.788200 14.041800 10.655000 94 94 94 -0.037930 -0.941010 -0.336248
12.722000 14.478900 1.259590 3 3 3 0.467703 -0.711917 0.523858
12.932100 14.906600 2.559740 3 3 3 0.474177 -0.865981 0.158847
12.717400 14.765900 8.163150 66 66 66 -0.051305 -0.958174 0.281550
14.653800 16.467600 1.613120 93 93 93 -0.992842 -0.007967 -0.119165
14.435500 16.512300 1.751220 2 2 2 -0.974406 -0.221817 -0.036474
12.852400 26.870701 29.058001 24 24 24 -0.273115 -0.942343 0.193386
12.739100 26.893900 30.242100 104 104 104 -0.246564 -0.965129 0.087936
14.171700 26.966499 32.882198 104 104 104 -0.283873 -0.958406 0.029556
14.188900 27.155701 38.074200 108 108 108 -0.073405 -0.997302 -0.000052
14.001300 26.958900 40.757000 56 56 56 -0.040718 -0.996513 0.072829
13.676700 37.307499 -0.514936 55 55 55 0.025604 -0.302203 -0.952900
14.708000 -25.665800 -1.383310 43 43 43 0.072330 0.498081 0.864108
14.937400 -25.558701 17.337900 35 35 35 -0.363976 0.882665 0.297363
15.504000 -25.260700 3.664770 95 95 95 -0.350178 0.930304 -0.109137
15.230900 -25.173800 11.046600 66 66 66 -0.284805 0.956447 0.063999
15.530400 -25.025200 11.646300 88 88 88 -0.342257 0.939499 0.014177
15.909300 -24.731899 16.524500 127 127 127 -0.426649 0.901726 0.069715
16.402500 -13.915900 1.488540 18 18 18 -0.739287 0.180288 -0.648807
14.711600 -14.379400 2.820930 22 22 22 -0.539029 -0.064722 -0.839797
15.075000 -12.402400 -0.879677 20 20 20 -0.009334 0.196612 -0.980437
15.560200 -12.159100 -0.365118 176 176 176 -0.060389 0.036407 0.997511
14.780400 -12.700600 2.069080 51 51 51 0.551956 0.757860 0.347839
14.846700 -10.249600 -0.931141 14 14 14 -0.660488 0.195743 0.724873
15.190100 -9.635330 0.099731 76 76 76 -0.743405 -0.666009 -0.061481
14.702700 -9.534670 -0.937563 47 47 47 -0.455582 0.264440 0.850010
14.933200 -9.420370 0.976297 88 88 88 -0.148105 0.914320 -0.376939
14.718100 -9.310570 1.627010 39 39 39 -0.107577 0.933496 -0.342070
14.746300 -6.531220 -1.504300 17 17 17 -0.183560 -0.299102 0.936399
14.696800 -5.037550 -1.483090 38 38 38 -0.162704 0.200590 0.966070
14.691100 -4.994980 0.404414 22 22 22 0.155560 0.979913 -0.124789
16.321600 -0.980489 -1.746660 3 3 3 -0.215169 0.039566 -0.975775
14.713500 2.012220 5.098430 39 39 39 -0.200530 0.487185 -0.849964
15.077900 2.452310 -0.928042 1 1 1 -0.008977 0.006506 0.999939
15.245300 4.391310 5.518170 62 62 62 0.160986 -0.360755 -0.918661
14.809500 4.165130 5.659290 42 42 42 0.170711 -0.356435 -0.918592
14.708800 5.657580 4.658820 49 49 49 -0.011446 -0.569448 -0.821947
15.637400 4.846910 5.998570 57 57 57 0.160837 -0.721572 -0.673399
14.843900 6.832000 2.618460 2 2 2 -0.926553 -0.311258 -0.211232
15.173300 6.776150 4.257660 49 49 49 0.324077 -0.436674 -0.839220
15.773300 8.419360 6.921840 39 39 39 0.294531 -0.954521 0.046277
15.916700 8.368520 7.729320 89 89 89 0.292952 -0.947303 0.129604
14.711000 8.557370 3.468880 71 71 71 0.073220 -0.964649 0.253162
14.776100 8.471000 3.655810 75 75 75 0.063655 -0.960320 0.271539
15.425000 9.048690 7.608880 77 77 77 -0.656830 -0.751974 0.055758
14.775800 9.831080 7.818500 12 12 12 -0.689241 -0.717773 -0.098736
16.378000 8.926810 9.744820 20 20 20 0.034629 -0.943536 0.329457
14.750100 12.339100 -1.342430 97 97 97 -0.473711 -0.701419 0.532550
14.732300 12.323700 -0.349695 108 108 108 -0.703283 -0.709538 -0.044140
15.172200 12.243500 1.665190 76 76 76 -0.369474 -0.929146 0.013309
15.087600 12.268600 3.658570 82 82 82 -0.057955 -0.994845 -0.083209
14.919400 12.286500 6.513550 26 26 26 0.009841 -0.996858 -0.078599
14.773400 10.539300 10.300400 32 32 32 -0.529283 -0.716493 0.454421
14.718900 12.502700 -1.383490 60 60 60 -0.533178 -0.698687 0.477030
14.731300 12.449400 -0.350549 112 112 112 -0.764732 -0.637968 -0.090450
14.727000 14.153400 9.418110 56 56 56 0.335196 -0.806757 -0.486607
14.905700 13.586600 9.766830 77 77 77 -0.863826 -0.029423 -0.502930
14.709300 14.465700 0.207059 110 110 110 -0.999519 0.031014 0.000291
14.725000 14.770200 8.219080 61 61 61 0.117607 -0.985072 -0.125707
14.939600 14.575200 9.641290 47 47 47 0.215651 -0.864361 -0.454286
14.911300 14.473100 11.896800 25 25 25 0.126474 -0.974062 0.187638
14.993800 26.792999 27.660500 73 73 73 -0.364453 -0.885552 -0.288046
15.122000 26.785000 29.639700 79 79 79 -0.235484 -0.896635 0.374957
14.749200 26.898300 37.049198 54 54 54 -0.082846 -0.996398 0.018104
14.878200 26.893600 37.672001 56 56 56 -0.044142 -0.998380 0.035904
14.695100 26.955999 40.852798 50 50 50 -0.035177 -0.996449 0.076501
14.969800 26.973000 42.195702 46 46 46 -0.048504 -0.996707 0.064987
18.683100 -37.157299 35.885700 32 32 32 -0.975648 0.218522 -0.018954
18.626801 -37.398300 38.854900 24 24 24 -0.985535 0.163161 -0.045822
18.603600 -37.355000 41.222900 59 59 59 -0.991659 0.128794 0.004858
18.544399 -37.354500 41.743000 22 22 22 -0.987015 0.152640 -0.050018
18.440901 -37.149399 44.425098 17 17 17 -0.977920 0.202648 -0.051047
18.362000 -37.111698 47.258202 17 17 17 -0.978004 0.201701 -0.053147
18.341400 -36.496101 49.539200 57 57 57 -0.970088 0.240977 -0.029299
18.302000 -37.230202 50.917999 46 46 46 -0.987449 0.154292 -0.033736
18.351900 -36.520401 52.187500 10 10 10 -0.983139 0.182704 0.007579
18.124201 -36.993198 55.396099 13 13 13 -0.976711 0.208217 -0.051786
18.299101 -35.636700 55.652699 27 27 27 -0.965233 0.257902 -0.042558
18.042801 -37.066700 58.364601 11 11 11 -0.981004 0.183986 -0.061480
17.921301 -36.586498 61.114201 17 17 17 -0.963259 0.266468 -0.033572
17.992599 -35.820599 63.541599 18 18 18 -0.962609 0.268492 -0.035987
17.945801 -36.064201 63.623402 15 15 15 -0.965224 0.259433 -0.032198
18.150999 -35.578899 65.994797 9 9 9 -0.995589 0.093341 -0.009464
17.762199 -36.271702 68.885399 49 49 49 -0.975083 0.220336 -0.025789
17.614599 -36.319599 71.861000 11 11 11 -0.984065 0.176894 -0.018005
18.662201 -35.557400 46.826401 56 56 56 -0.970131 0.240040 -0.035016
18.656099 -35.442600 49.501202 47 47 47 -0.984490 0.163595 -0.063374
18.599501 -35.441700 49.623600 49 49 49 -0.981211 0.185459 -0.053207
18.427500 -35.549099 52.817101 36 36 36 -0.973736 0.227680 -0.000747
18.414600 -35.527100 55.046200 47 47 47 -0.974440 0.212419 -0.073112
18.364100 -35.322201 55.747700 15 15 15 -0.966328 0.241613 -0.088504
18.431299 -35.346401 57.765800 32 32 32 -0.974681 0.207078 -0.084354
18.181801 -35.523602 60.785198 26 26 26 -0.971174 0.237234 -0.023273
18.179300 -35.412601 63.332100 49 49 49 -0.973466 0.228061 -0.018777
18.160000 -35.265999 63.757198 20 20 20 -0.985818 0.167152 -0.014905
18.111900 -35.502499 66.044601 31 31 31 -0.994024 0.107616 -0.018281
17.911699 -35.442200 69.037102 15 15 15 -0.984041 0.174775 -0.033423
18.106501 -35.060902 71.537102 16 16 16 -0.994164 0.095753 -0.049694
17.938499 -35.169800 71.995102 12 12 12 -0.993877 0.105663 -0.032318
18.004299 -34.652599 74.625397 12 12 12 -0.994941 0.099729 -0.012109
17.654301 -35.384102 77.247803 24 24 24 -0.980976 0.193499 0.015613
17.662901 -35.402599 78.498497 33 33 33 -0.980427 0.195092 -0.026479
17.826500 -34.960899 81.207901 23 23 23 -0.989485 0.143418 -0.018725
17.566099 -35.324100 82.667603 41 41 41 -0.979911 0.197109 -0.030363
17.785700 -33.831600 85.460800 7 7 7 -0.969037 0.243389 -0.041584
17.645599 -34.826900 86.102699 39 39 39 -0.971682 0.235315 0.021465
18.679300 -33.425499 55.104900 42 42 42 -0.997481 0.058596 -0.039981
18.631100 -32.571301 55.635899 16 16 16 -0.983149 0.174117 0.055683
18.573299 -33.239498 58.002201 12 12 12 -0.995438 0.079476 -0.052783
18.585300 -33.465599 60.515301 51 51 51 -0.990089 0.138650 -0.022378
18.386600 -32.531101 63.479099 15 15 15 -0.958634 0.271973 0.083969
18.413601 -33.552101 63.647301 14 14 14 -0.991794 0.121485 -0.039824
18.396099 -33.522800 66.001801 46 46 46 -0.982032 0.188707 -0.001473
18.274000 -33.504501 69.125298 12 12 12 -0.980611 0.194691 -0.022316
18.189800 -32.383999 74.296799 33 33 33 -0.885912 0.427708 0.179514
17.996099 -32.424301 77.544502 6 6 6 -0.868672 0.344131 -0.356346
17.930599 -33.088501 82.632896 56 56 56 -0.972633 0.232297 0.004904
17.782200 -32.427299 86.053200 36 36 36 -0.953572 0.270278 -0.132854
18.620600 -31.176001 55.528999 17 17 17 -0.753596 0.647013 -0.116049
18.548201 -31.416401 60.482201 49 49 49 -0.760871 0.646482 -0.056003
18.462400 -30.741301 61.626900 21 21 21 -0.282859 0.956831 -0.066819
18.393000 -31.518700 63.700901 12 12 12 -0.783630 0.567672 -0.252335
18.653799 -30.714800 66.060997 42 42 42 -0.777202 0.621232 -0.100142
18.167700 -31.232201 71.615799 40 40 40 -0.726643 0.686316 0.030988
18.137501 -31.180500 71.715500 13 13 13 -0.622328 0.779804 0.067933
18.111300 -31.407301 74.337997 57 57 57 -0.677379 0.733362 0.057781
18.065001 -31.420900 77.052101 50 50 50 -0.881307 0.463171 0.093645
18.356199 -30.580999 78.456902 28 28 28 -0.775195 0.617520 -0.133202
18.117901 -30.446699 79.991096 12 12 12 -0.806076 0.540370 -0.241335
18.295000 -30.484400 84.016197 25 25 25 -0.952350 0.303489 0.030401
18.501699 -30.483999 86.060600 34 34 34 -0.962206 0.256104 -0.092573
17.431101 -23.996300 15.517400 121 121 121 -0.566108 0.824204 -0.014503
16.790001 -24.314800 16.444401 126 126 126 -0.491370 0.869784 -0.045058
17.715099 -23.080900 15.219100 117 117 117 -0.295336 0.698989 0.651300
18.160900 -23.538401 15.623500 124 124 124 -0.535864 0.842553 0.054358
16.702900 -13.568000 1.269240 26 26 26 -0.777132 0.628242 -0.037133
16.697399 -13.950600 1.795080 19 19 19 -0.488730 -0.290906 -0.822507
16.870100 -12.058300 -1.273510 9 9 9 0.124567 0.985615 0.114223
16.778799 -13.524100 1.169910 20 20 20 -0.773553 0.627065 0.091682
17.126499 -13.109400 3.035550 113 113 113 -0.671038 0.739037 0.059436
17.113199 -11.499200 -0.607385 41 41 41 -0.858049 -0.454160 0.239772
17.140400 -11.486500 -0.303693 26 26 26 -0.845537 -0.494430 0.201510
17.495501 -10.048100 2.829910 39 39 39 -0.947872 -0.312569 -0.061955
17.429199 -8.710910 -1.301120 1 1 1 -0.172528 0.949141 0.263374
18.275200 -8.961820 -0.348195 25 25 25 -0.325736 0.737692 0.591359
18.277599 -9.424930 3.155660 91 91 91 -0.993939 0.032634 0.104981
18.133900 -6.911800 -1.396980 2 2 2 -0.213080 0.400330 0.891253
18.337200 -6.623590 2.917890 129 129 129 -0.206924 -0.109483 0.972212
17.139500 -0.317447 -1.744640 3 3 3 -0.232512 0.045463 -0.971530
17.939600 2.336610 10.858700 4 4 4 -0.149293 -0.988665 -0.015898
17.195900 2.796780 -0.993052 1 1 1 0.033156 0.047272 0.998332
17.101601 2.930890 10.363400 2 2 2 0.010194 0.258198 -0.966038
18.412600 5.811820 -1.729360 16 16 16 -0.826533 -0.015852 0.562665
16.865700 7.306600 -1.994980 46 46 46 -0.472114 -0.291980 0.831779
17.131500 7.804300 7.702260 24 24 24 -0.381635 -0.801254 0.460811
16.951200 9.103790 7.854740 32 32 32 0.385366 -0.922319 0.028658
17.082001 9.507350 10.159500 11 11 11 -0.220536 -0.745648 0.628787
18.525600 12.330200 1.471170 112 112 112 -0.632289 -0.644966 0.429219
18.589100 12.236900 1.666570 59 59 59 -0.629033 -0.662163 0.407256
16.748100 12.273700 3.711000 56 56 56 0.104925 -0.991723 -0.074008
16.709299 12.277000 5.669980 71 71 71 0.001299 -0.999794 0.020252
17.517000 11.059700 10.060900 31 31 31 -0.103305 0.354756 -0.929234
17.518101 13.113300 -1.047400 39 39 39 0.492028 -0.866641 0.082716
16.858200 12.685600 0.515383 48 48 48 0.411611 -0.911281 0.011940
16.796000 12.671000 1.751750 15 15 15 0.444689 -0.892560 0.074750
17.337200 13.112100 3.664110 70 70 70 -0.371123 -0.534146 -0.759576
17.874399 12.789200 6.922150 14 14 14 0.011055 -0.892584 0.450746
16.997601 14.176200 11.500400 1 1 1 0.085963 -0.994658 -0.057154
16.802500 14.411400 11.689700 1 1 1 0.074545 -0.997176 0.009068
17.307899 14.845000 11.968200 1 1 1 0.149906 -0.976662 0.153818
17.393200 22.595900 28.845800 64 64 64 -0.352679 -0.166692 -0.920778
17.363701 24.607401 28.402000 59 59 59 -0.365424 -0.150484 -0.918597
17.173401 24.724100 35.481800 53 53 53 -0.664526 -0.746839 0.025207
17.168400 24.848200 35.644001 62 62 62 -0.632847 -0.773595 0.032488
16.812401 26.931000 38.237900 57 57 57 0.005930 -0.998336 0.057351
16.998301 27.299400 43.376400 98 98 98 0.000722 -0.994478 0.104939
19.003500 -37.425598 25.177601 37 37 37 -0.980880 0.190805 -0.038304
18.938801 -37.417500 27.595800 36 36 36 -0.980260 0.197558 -0.007862
18.935600 -37.411201 27.664801 35 35 35 -0.979834 0.197552 -0.029988
18.902201 -37.348499 30.179300 53 53 53 -0.985888 0.167322 -0.005256
18.781799 -37.349602 33.067299 39 39 39 -0.981739 0.189419 -0.017568
18.765301 -36.740200 33.632702 46 46 46 -0.962074 0.267657 -0.052673
18.699800 -37.423401 36.138599 27 27 27 -0.984974 0.165507 -0.049336
18.699400 -36.617699 38.437302 49 49 49 -0.971826 0.233720 -0.030483
18.699400 -36.058102 41.231899 52 52 52 -0.969099 0.245906 0.019429
18.709499 -35.859299 41.631401 56 56 56 -0.955164 0.239607 -0.173928
18.738899 -35.808601 43.935699 33 33 33 -0.971508 0.224323 -0.076499
18.694300 -35.727100 46.694801 25 25 25 -0.970412 0.209621 -0.119829
19.620501 -34.360401 23.503401 56 56 56 -0.997301 0.054294 -0.049418
19.418100 -35.544800 24.724501 83 83 83 -0.972321 0.223311 -0.068734
19.410999 -35.427700 27.370701 54 54 54 -0.977680 0.175869 -0.114940
19.323999 -35.483200 27.631599 92 92 92 -0.974314 0.216931 -0.060437
19.293900 -35.537498 30.125900 41 41 41 -0.972185 0.205493 -0.112376
19.164301 -35.514999 32.956501 73 73 73 -0.973077 0.217740 -0.075571
19.318399 -34.645599 33.685398 45 45 45 -0.997538 0.070129 0.000822
19.109900 -35.525501 35.668201 45 45 45 -0.973287 0.202434 -0.108316
18.936899 -35.524101 38.652901 64 64 64 -0.969162 0.239222 -0.059136
18.916901 -35.489899 41.218201 57 57 57 -0.965572 0.233838 -0.113975
18.875700 -35.413101 41.646198 57 57 57 -0.970287 0.235845 -0.054033
18.825500 -35.540401 43.948002 41 41 41 -0.974067 0.208579 -0.087683
18.778099 -35.454300 46.700001 32 32 32 -0.965779 0.203159 -0.161239
18.698200 -35.415699 49.464298 32 32 32 -0.985613 0.144144 -0.088260
18.710800 -35.114399 49.685799 44 44 44 -0.984129 0.161285 -0.074010
18.787800 -34.947399 52.214401 32 32 32 -0.984905 0.107174 -0.135926
18.701500 -34.998798 54.963299 19 19 19 -0.977480 0.161676 -0.135626
19.614500 -31.613501 21.971600 63 63 63 -0.389373 0.904309 -0.174968
19.629101 -33.490200 24.587000 46 46 46 -0.995085 0.010691 -0.098444
19.531700 -33.522099 27.356100 55 55 55 -0.996765 0.006995 -0.080067
19.440201 -32.328602 27.704700 58 58 58 -0.966095 0.067163 -0.249298
19.427500 -33.538799 30.156099 63 63 63 -0.998419 0.001027 -0.056204
19.367701 -33.535702 32.896702 58 58 58 -0.998713 0.010366 -0.049652
19.281200 -33.102402 35.576801 95 95 95 -0.997466 0.002593 -0.071094
19.188400 -31.739401 36.293598 36 36 36 -0.684302 0.379973 -0.622375
19.167999 -33.390701 38.575699 39 39 39 -0.999784 -0.010764 -0.017764
19.077101 -33.527401 41.332100 39 39 39 -0.999292 -0.013173 -0.035234
19.067499 -33.510899 41.624802 29 29 29 -0.999284 -0.014178 -0.035068
18.940001 -33.487202 44.744900 37 37 37 -0.996235 -0.036843 -0.078478
18.901100 -33.421200 46.869598 34 34 34 -0.999354 -0.013248 -0.033409
18.893999 -33.510700 49.474602 61 61 61 -0.997043 0.026792 -0.072023
18.823200 -33.482601 49.690701 24 24 24 -0.997722 0.016017 -0.065534
18.754801 -33.557301 52.324100 44 44 44 -0.998248 0.055380 -0.020840
18.739401 -33.532700 54.990398 60 60 60 -0.993484 0.088204 -0.072177
18.712200 -32.713501 56.335098 42 42 42 -0.988297 0.150569 -0.024469
19.430799 -31.925699 92.088898 6 6 6 -0.968173 0.168625 0.184949
19.612301 -31.522400 21.972401 62 62 62 -0.356465 0.921653 -0.153257
19.598101 -31.502501 24.552200 43 43 43 -0.487998 0.647059 0.585809
19.440901 -31.517401 27.613501 59 59 59 -0.351862 0.122377 -0.928018
19.438900 -31.514200 27.681299 59 59 59 -0.430807 0.200742 -0.879834
19.409300 -31.468901 30.105301 64 64 64 0.435495 -0.154537 -0.886827
19.332800 -31.527000 32.878601 63 63 63 0.524440 -0.290318 -0.800424
19.269899 -31.516001 35.614201 57 57 57 0.541300 -0.422334 -0.727069
19.242500 -31.471399 35.653099 66 66 66 0.427787 -0.355952 -0.830841
19.136101 -31.478100 38.534500 43 43 43 -0.777264 0.433657 0.455854
19.036200 -31.493700 41.350101 36 36 36 -0.647129 0.669013 0.365576
19.019400 -31.555300 41.640999 32 32 32 -0.482490 0.724754 -0.491868
18.940901 -31.339800 44.520802 29 29 29 -0.366936 0.280388 -0.886984
18.870600 -31.314400 46.827702 33 33 33 0.082562 -0.047762 -0.995441
18.799801 -31.469400 49.560699 36 36 36 0.112536 -0.122239 -0.986100
18.874100 -30.885500 50.114799 36 36 36 -0.329848 0.443279 -0.833489
18.775999 -31.522100 52.198200 58 58 58 -0.798374 0.597054 0.078262
18.935900 -30.817200 55.101700 41 41 41 -0.702692 0.711463 0.006686
18.909401 -30.774700 55.632301 27 27 27 -0.815323 0.571927 -0.090269
18.804199 -30.779499 58.148998 31 31 31 -0.604853 0.763128 -0.227573
18.850300 -30.857300 60.472099 26 26 26 -0.730211 0.681958 -0.041535
18.767401 -30.811300 63.227699 29 29 29 -0.618374 0.780141 0.094834
18.700899 -30.702700 63.745998 19 19 19 -0.681146 0.376777 -0.627757
18.794800 -30.771900 65.994003 29 29 29 -0.833725 0.550618 -0.041494
18.881599 -30.568800 69.466400 12 12 12 -0.895692 0.442978 -0.038795
18.845900 -30.685600 70.150597 22 22 22 -0.931535 0.363455 0.011941
18.837200 -30.586000 71.684601 29 29 29 -0.797047 0.602148 0.046188
18.741501 -30.520399 74.543503 10 10 10 -0.834537 0.517602 -0.188775
18.711100 -30.645800 77.055603 26 26 26 -0.857400 0.513190 0.038736
18.776400 -30.493200 77.688797 10 10 10 -0.915310 0.402747 -0.001273
19.235201 -30.546400 79.910301 37 37 37 -0.968613 0.207624 0.136676
19.003799 -30.439100 83.223000 8 8 8 -0.948959 0.311232 -0.051112
18.889900 -30.595800 83.971603 23 23 23 -0.949657 0.311048 -0.037417
18.715300 -30.488501 86.063698 35 35 35 -0.961956 0.272949 -0.011794
20.085100 -30.613400 91.683800 1 1 1 -0.971080 0.147370 0.187845
20.178200 -29.609900 96.565804 9 9 9 -0.978769 0.179446 0.099049
19.852100 -29.936800 99.634903 8 8 8 -0.933397 0.355143 -0.051417
20.669399 -28.246099 35.576500 44 44 44 -0.855439 0.238204 0.459874
20.681299 -29.488701 35.691101 65 65 65 -0.998724 -0.007322 -0.049958
20.634800 -29.425100 38.401501 58 58 58 -0.996233 0.003718 -0.086635
20.559299 -29.557100 41.153198 41 41 41 -0.997385 0.032343 -0.064626
20.438101 -27.791901 42.548500 39 39 39 -0.929012 0.361902 -0.077220
20.403799 -29.493500 44.074001 42 42 42 -0.999441 0.018076 -0.028114
20.378401 -29.538799 46.708801 63 63 63 -0.996253 0.034652 -0.079247
20.257401 -29.527201 49.564800 47 47 47 -0.996791 0.053445 -0.059595
20.188000 -28.877300 50.119999 18 18 18 -0.996691 -0.034859 -0.073423
20.176001 -29.489901 52.338402 40 40 40 -0.999138 0.019343 -0.036726
20.111200 -29.554399 55.063499 45 45 45 -0.917704 0.390623 -0.072337
20.126301 -28.872299 56.324402 36 36 36 -0.971382 0.236801 -0.018525
19.885201 -28.227600 59.160400 3 3 3 -0.975503 0.219528 -0.014171
19.925200 -29.527500 60.656200 28 28 28 -0.969240 0.232844 -0.079735
19.867800 -29.524700 63.349201 50 50 50 -0.865677 0.295052 -0.404411
19.839899 -29.086399 63.748600 13 13 13 -0.988314 0.106993 -0.108576
19.820601 -29.536699 66.055496 58 58 58 -0.973980 0.168756 -0.151279
19.681700 -27.650801 68.844002 43 43 43 -0.722460 0.690075 -0.042980
19.687700 -29.342501 70.190201 36 36 36 -0.942502 0.318311 -0.101825
19.554199 -27.991301 71.665298 23 23 23 -0.971149 0.233390 -0.048975
19.594200 -29.447001 74.320999 44 44 44 -0.928028 0.371708 -0.024418
19.440201 -28.513500 77.161400 32 32 32 0.874033 -0.281479 -0.396026
19.428600 -28.423800 79.855698 52 52 52 -0.952189 0.292180 -0.089256
19.403000 -28.388599 82.584000 31 31 31 -0.937459 0.346464 0.033676
19.263901 -28.569799 84.001801 39 39 39 -0.935374 0.353476 -0.011455
19.167900 -28.351999 86.120697 23 23 23 -0.929238 0.333158 -0.159758
20.657600 -28.887199 94.496803 24 24 24 -0.953869 0.281201 0.105169
20.217199 -29.509199 95.856400 26 26 26 -0.980513 0.172043 0.094845
20.593100 -28.123600 99.432999 26 26 26 -0.935128 0.351518 -0.044389
20.415501 -28.554300 100.222000 67 67 67 -0.934941 0.352154 -0.043289
20.305700 -28.705400 103.250000 39 39 39 -0.936169 0.349802 -0.035008
20.646299 -27.483900 35.705502 61 61 61 0.133417 -0.068314 -0.988703
20.553801 -27.508499 38.504700 53 53 53 0.553088 -0.158639 -0.817880
20.542000 -27.495399 41.111198 52 52 52 -0.699449 0.709948 0.082132
20.448299 -27.442900 41.653801 38 38 38 -0.447843 0.435536 -0.780862
20.375099 -27.417900 44.028099 43 43 43 -0.285362 0.924378 -0.253167
20.348700 -27.527901 46.667099 59 59 59 0.508855 -0.509774 -0.693683
20.200800 -27.476200 49.611401 34 34 34 0.120706 -0.164756 -0.978921
20.188601 -27.387400 50.002899 26 26 26 -0.302601 0.188656 -0.934260
20.120399 -27.513000 52.715500 23 23 23 0.375944 -0.490830 -0.785972
20.615700 -27.105400 54.959099 37 37 37 -0.577615 0.816290 -0.005606
20.129400 -27.028601 56.099899 28 28 28 -0.347460 0.805177 -0.480585
19.962299 -27.301901 58.049198 17 17 17 -0.459021 0.737547 0.495302
19.891199 -27.496700 60.670601 16 16 16 -0.512387 0.641289 -0.571146
19.818899 -27.471300 63.371201 28 28 28 -0.153445 0.106957 -0.982352
19.800900 -27.446699 63.698399 13 13 13 -0.352409 0.279156 -0.893241
19.729700 -27.496099 66.166298 21 21 21 -0.606506 0.681490 0.409538
19.786100 -26.787600 69.442101 13 13 13 -0.647599 0.761479 -0.027672
19.683800 -27.362700 70.149902 42 42 42 -0.878935 0.473901 -0.053773
19.556900 -27.335800 74.318100 53 53 53 -0.970670 0.240078 0.012722
19.424500 -27.441999 77.140297 35 35 35 -0.741539 0.584523 0.329322
19.748100 -26.673100 77.712997 13 13 13 -0.664347 0.539754 -0.517019
19.413500 -27.428699 79.821899 46 46 46 -0.923751 0.368979 -0.102660
19.637501 -26.809999 83.849701 8 8 8 -0.951104 0.306053 -0.041631
19.173700 -27.314899 86.058502 50 50 50 -0.912247 0.284085 -0.295129
19.358200 -25.022900 14.681600 4 4 4 -0.205106 0.347287 -0.915054
18.794500 -23.615999 17.293200 5 5 5 -0.522404 0.728500 0.443150
20.663700 -25.557301 85.378899 41 41 41 -0.922214 0.386063 0.021848
20.153200 -22.232000 10.798500 38 38 38 -0.690070 0.717276 0.096535
20.434601 -21.980499 11.640300 73 73 73 -0.673650 0.734562 0.081326
18.856001 -23.090300 15.269400 28 28 28 -0.390296 0.919177 -0.052749
18.881599 -23.542900 17.306601 11 11 11 -0.537985 0.725089 0.429906
20.689400 -21.542400 16.235300 142 142 142 -0.681100 0.731662 -0.027817
19.513201 -19.316900 9.787590 2 2 2 -0.325150 0.280585 0.903078
18.834600 -9.264980 -1.143520 13 13 13 -0.750941 -0.400547 -0.525023
19.247601 -7.336270 -1.430740 1 1 1 -0.538325 0.673898 0.506032
18.757299 -6.090640 3.071310 26 26 26 -0.198288 0.136931 0.970532
19.412201 0.419714 5.305670 39 39 39 -0.365401 -0.469219 0.803938
20.560900 0.263092 5.972170 35 35 35 -0.970506 0.153325 -0.186033
18.915701 2.104870 4.863620 25 25 25 -0.390852 -0.418961 0.819577
19.662100 1.787390 7.160290 28 28 28 -0.941157 -0.280066 0.189172
20.130600 2.033550 8.843000 28 28 28 -0.100759 -0.990793 -0.090424
18.770300 1.871450 10.005300 19 19 19 -0.064113 0.829358 -0.555027
19.334900 3.241830 5.974800 25 25 25 -0.658583 0.006284 0.752482
18.694000 5.490040 -1.330550 24 24 24 -0.635192 -0.039359 0.771351
19.686501 4.483750 6.511320 38 38 38 -0.615598 0.567882 0.546397
18.712400 6.480350 -1.133750 12 12 12 -0.795128 0.028413 0.605776
19.554800 7.380420 7.491250 28 28 28 -0.588526 0.118660 -0.799723
18.898800 10.181000 8.661980 27 27 27 0.217964 -0.707857 -0.671886
18.837799 11.767500 -1.335360 39 39 39 0.157597 -0.731018 0.663909
18.691200 12.237300 1.517100 74 74 74 -0.574561 -0.747481 0.333393
18.738701 12.235100 1.668790 78 78 78 -0.476133 -0.831853 0.285163
18.726500 12.259600 3.657310 70 70 70 -0.538388 -0.822920 -0.181496
18.925501 12.287900 6.143770 58 58 58 -0.011502 -0.997679 0.067119
18.725100 10.483900 9.509670 42 42 42 0.304965 -0.125496 -0.944059
18.771200 14.051100 -0.444585 84 84 84 0.566298 -0.808103 -0.162098
18.772301 14.051800 -0.356189 77 77 77 0.562875 -0.809406 -0.167433
19.562401 12.805200 7.009380 6 6 6 0.005516 -0.896669 0.442668
19.562401 13.850000 7.679950 3 3 3 -0.042355 -0.650584 0.758252
19.086300 14.851700 8.466930 7 7 7 0.117065 -0.641948 0.757759
21.312799 -31.453800 21.563900 34 34 34 -0.263572 0.691939 -0.672123
20.718000 -31.247999 21.966000 105 105 105 -0.286131 0.838602 -0.463547
20.785900 -31.352800 24.520100 4 4 4 -0.685073 0.518030 -0.512171
20.719601 -31.254499 25.946501 34 34 34 -0.902689 0.424365 0.071188
20.714399 -31.164700 27.645599 105 105 105 -0.749140 0.656216 0.090388
20.695200 -31.222300 30.093700 27 27 27 -0.758079 0.541402 -0.363595
20.797600 -30.955200 31.674900 50 50 50 -0.889093 0.457175 0.022479
20.738501 -30.952801 33.646400 51 51 51 -0.924071 0.277085 0.263282
20.714701 -30.096701 35.638699 90 90 90 -0.996831 0.050361 -0.061579
21.080099 -29.487900 21.863800 73 73 73 -0.763919 -0.013691 -0.645167
20.939899 -28.380600 25.149900 61 61 61 -0.954730 0.180213 -0.236673
20.927099 -29.513000 27.380199 69 69 69 -0.998267 -0.006521 -0.058484
20.886600 -29.535299 27.681101 59 59 59 -0.998352 -0.019861 -0.053843
20.884300 -29.377100 29.988400 111 111 111 -0.995727 0.001277 -0.092341
20.800900 -29.340799 32.803001 101 101 101 -0.995609 0.000691 -0.093610
20.745399 -29.422400 34.229500 52 52 52 -0.999744 0.016585 -0.015416
20.709801 -29.529100 35.652699 59 59 59 -0.997400 0.006426 -0.071781
20.695601 -28.786301 94.508904 28 28 28 -0.947531 0.305852 0.092953
20.700600 -28.416901 97.343803 24 24 24 -0.939494 0.340790 -0.034820
21.028200 -27.542900 21.920700 80 80 80 -0.617815 0.193980 0.762021
20.939100 -27.501200 24.917299 80 80 80 0.167805 0.094344 -0.981295
20.895800 -27.446600 26.966000 65 65 65 -0.630599 0.534478 0.562742
20.858200 -27.541901 27.676100 66 66 66 -0.342646 0.173489 -0.923307
20.799999 -27.538799 30.169300 66 66 66 0.325340 -0.085739 -0.941702
20.749201 -27.545601 32.867802 73 73 73 0.299206 -0.216974 -0.929192
20.694799 -27.548300 35.609798 62 62 62 0.297983 -0.187919 -0.935891
20.847000 -27.319401 35.650200 65 65 65 0.132457 -0.170720 -0.976376
20.846300 -27.320999 38.347599 29 29 29 -0.469051 0.800111 0.373917
20.837500 -27.310801 39.715500 27 27 27 -0.440245 0.891575 -0.106203
20.851200 -27.189501 41.636799 55 55 55 -0.454580 0.873443 -0.174511
20.860300 -27.273500 43.839600 14 14 14 -0.578892 0.775343 0.252442
20.833799 -27.241400 46.614201 13 13 13 -0.616185 0.784200 0.073113
20.868999 -27.219700 49.387001 10 10 10 -0.610940 0.790003 -0.051452
20.721300 -27.097300 49.678200 50 50 50 -0.473542 0.689109 -0.548531
20.716200 -27.092899 52.299400 49 49 49 -0.650136 0.711920 0.265505
20.802900 -27.138500 54.922699 18 18 18 -0.627204 0.767793 -0.130801
20.788200 -27.120600 56.297100 13 13 13 -0.659486 0.750197 -0.047776
21.025400 -27.078501 59.088299 18 18 18 -0.807096 0.590344 0.009432
20.762699 -27.090700 60.429798 8 8 8 -0.678271 0.725883 -0.114203
20.922800 -27.019300 63.255699 24 24 24 -0.708041 0.653604 -0.267356
21.203899 -26.890499 63.626598 21 21 21 -0.957337 0.287931 0.024532
20.711100 -27.028099 65.960197 8 8 8 -0.631378 0.775393 -0.011269
21.156300 -26.627001 67.872704 6 6 6 -0.564518 0.822758 0.066239
20.934799 -26.902800 71.569801 27 27 27 -0.889573 0.454986 -0.040591
20.885000 -26.838900 71.637001 41 41 41 -0.910255 0.404123 -0.090108
20.856501 -26.804600 74.416603 33 33 33 -0.909825 0.407056 -0.080767
20.739201 -26.862801 77.078003 15 15 15 -0.259116 0.257801 -0.930805
20.732901 -26.786501 78.469902 24 24 24 -0.761846 0.603181 0.236144
20.808100 -26.609900 82.785103 13 13 13 -0.967268 0.235677 0.094069
20.695499 -25.662399 86.037903 43 43 43 -0.921745 0.385644 0.040808
21.157499 -23.999901 14.639200 5 5 5 -0.156664 0.232420 -0.959915
22.440500 -24.638000 22.532400 49 49 49 -0.987616 0.039542 -0.151825
22.431000 -25.452299 24.600700 77 77 77 -0.995062 -0.011473 -0.098594
22.433201 -25.519800 25.912701 42 42 42 -0.999825 0.004395 0.018197
22.310699 -25.382200 27.631399 73 73 73 -0.999451 -0.015440 -0.029306
22.189400 -23.644899 30.689600 76 76 76 -0.547744 0.387068 -0.741724
22.180201 -25.496799 32.897701 77 77 77 -0.998336 -0.008114 -0.057098
22.145300 -25.522800 34.180901 63 63 63 -0.999738 -0.005011 -0.022339
22.121401 -25.431601 35.646099 77 77 77 -0.998459 -0.006237 -0.055150
22.071800 -25.441900 38.349998 70 70 70 -0.995207 0.004872 -0.097674
21.930700 -25.410601 41.189499 62 62 62 -0.998951 -0.006975 -0.045246
21.902201 -25.441900 41.647499 42 42 42 -0.998265 -0.012116 -0.057626
21.810400 -25.337999 44.477699 33 33 33 -0.998281 -0.014430 -0.056812
21.686199 -24.627800 47.367401 19 19 19 -0.982876 0.063473 -0.172994
21.653799 -25.548700 49.612801 39 39 39 -0.997349 -0.012479 -0.071690
21.652300 -25.481501 49.639599 35 35 35 -0.996985 -0.013435 -0.076421
21.619400 -25.379801 52.246799 59 59 59 -0.998017 -0.003827 -0.062835
21.437700 -23.685600 55.619099 16 16 16 -0.634189 0.563518 -0.529388
21.417200 -23.782400 55.635300 11 11 11 -0.691080 0.544356 -0.475485
21.421101 -25.472799 57.949200 25 25 25 -0.999839 -0.017767 -0.002477
21.331800 -25.113600 60.682301 23 23 23 -0.998058 -0.025007 -0.057057
21.262300 -25.419300 63.367901 33 33 33 -0.998532 0.011697 -0.052880
21.262899 -25.551001 63.664101 12 12 12 -0.998747 0.037352 -0.033293
21.177900 -25.386200 66.484001 9 9 9 -0.987892 0.145473 0.053918
21.185499 -24.260599 68.753601 38 38 38 -0.991171 0.107729 0.077295
21.136400 -24.892300 71.498001 25 25 25 -0.976142 0.206745 -0.066355
21.081499 -25.534800 72.898697 31 31 31 -0.971005 0.154449 -0.182469
20.912600 -24.258499 74.408501 20 20 20 -0.885916 0.460022 -0.059439
20.847601 -25.449400 77.188904 26 26 26 -0.968744 0.231341 -0.089530
20.773199 -25.359200 77.731598 22 22 22 -0.989866 0.114649 -0.083795
20.749100 -25.074400 79.962997 21 21 21 -0.958585 0.204348 -0.198386
20.788099 -24.932600 83.414902 4 4 4 -0.921095 0.389331 0.002177
20.774500 -24.980499 83.868401 5 5 5 -0.917852 0.396224 -0.023559
20.707899 -21.720800 11.492400 70 70 70 -0.692475 0.717697 0.073412
20.706699 -21.719601 11.665000 83 83 83 -0.688196 0.723558 0.053388
20.705400 -22.901600 15.056400 7 7 7 -0.368831 0.479602 -0.796207
20.849300 -22.206699 17.115000 38 38 38 -0.495270 0.606528 0.621958
21.459400 -22.513300 17.657400 8 8 8 -0.366785 0.573026 0.732878
22.500700 -23.555700 28.750500 15 15 15 -0.311793 0.937184 -0.156430
22.379000 -23.547100 30.189699 72 72 72 0.240699 -0.239267 -0.940646
22.362000 -23.531601 32.859501 73 73 73 0.205542 -0.241536 -0.948374
22.157301 -23.493799 33.664398 58 58 58 -0.500080 0.583778 -0.639627
22.177900 -23.458401 35.814201 58 58 58 -0.099514 0.092702 -0.990709
22.190599 -23.474001 38.373402 61 61 61 0.258890 -0.431249 -0.864292
21.876400 -23.555901 41.429100 41 41 41 -0.035179 0.064787 -0.997279
22.425501 -23.488600 42.433800 11 11 11 -0.553710 0.831654 -0.041916
21.797199 -23.533199 44.163200 35 35 35 0.076797 -0.015043 -0.996933
21.690001 -23.538200 47.291302 27 27 27 -0.423363 0.369893 -0.827008
21.686399 -23.477100 49.432999 49 49 49 0.369917 -0.246066 -0.895887
21.630301 -23.534100 49.636902 33 33 33 -0.079717 0.045527 -0.995777
21.585300 -23.487200 52.228500 61 61 61 0.169483 -0.186490 -0.967728
21.437799 -23.506399 55.598301 19 19 19 -0.489477 0.459753 -0.740972
21.411100 -23.536501 55.638000 13 13 13 -0.515811 0.483050 -0.707533
21.404100 -23.530399 57.781898 43 43 43 -0.987019 0.066496 -0.146190
21.853300 -23.193001 60.498600 52 52 52 -0.885274 0.459310 0.072966
21.317101 -23.498501 63.220100 41 41 41 -0.916046 0.283554 -0.283651
21.484100 -23.092199 63.754700 13 13 13 -0.890970 0.406073 -0.203168
21.159000 -23.267799 66.078003 34 34 34 -0.853501 0.512035 -0.096723
21.147200 -23.552299 68.771599 49 49 49 -0.888776 0.458146 -0.013424
21.153900 -23.442200 70.104103 27 27 27 -0.814422 0.580142 0.012363
20.971600 -23.125099 72.083801 9 9 9 -0.724726 0.686907 -0.054149
20.932899 -23.495001 74.348801 44 44 44 -0.577654 0.816280 0.001687
20.895700 -23.514099 75.710403 27 27 27 -0.824163 0.564940 -0.039972
21.105301 -22.927000 77.628197 6 6 6 -0.700211 0.479721 -0.528746
20.924700 -23.549500 79.748001 12 12 12 -0.784440 0.563029 -0.260100
21.910500 -22.978800 81.944099 10 10 10 -0.864534 0.458683 0.205403
20.846800 -22.880899 85.352501 30 30 30 -0.921847 0.270469 -0.277569
21.010000 -22.887300 86.772003 20 20 20 -0.947316 0.288029 -0.140114
21.823099 -19.926901 -0.407111 44 44 44 -0.529137 0.718929 0.450727
21.824499 -19.928101 -0.332853 43 43 43 -0.513623 0.718929 0.468329
22.360201 -20.418301 1.942550 46 46 46 -0.735936 0.676903 0.014125
21.886499 -20.705700 7.143220 67 67 67 -0.745005 0.665792 -0.041091
20.873699 -20.664200 11.140300 59 59 59 -0.008650 -0.119867 -0.992752
21.357300 -21.090599 11.634200 63 63 63 -0.700045 0.713873 0.017972
20.730600 -21.529600 15.369100 111 111 111 -0.597075 0.504491 -0.623691
20.696899 -21.549700 15.662300 132 132 132 -0.673827 0.645473 -0.359613
22.648800 -20.879999 61.919899 5 5 5 -0.992597 0.115151 -0.038632
22.676300 -20.028900 64.604500 40 40 40 -0.912835 0.406339 -0.040259
22.686100 -21.397600 66.012398 34 34 34 -0.878734 0.140525 -0.456157
22.608200 -21.380100 68.796204 43 43 43 -0.965214 0.202464 -0.165438
22.429399 -21.320101 71.614403 27 27 27 -0.999494 0.031491 0.004530
22.420601 -21.418200 71.638802 22 22 22 -0.999151 0.040726 0.006156
22.421499 -21.100901 74.320297 44 44 44 -0.999072 -0.024648 -0.035330
22.438200 -21.546700 76.990700 11 11 11 -0.954520 0.170784 -0.244387
22.243500 -21.147699 77.631500 4 4 4 -0.986945 0.139706 -0.080138
22.181200 -21.517700 79.921501 27 27 27 -0.994894 0.093314 -0.038458
22.142900 -20.844700 82.639297 38 38 38 -0.999587 0.020281 -0.020362
22.141800 -20.949800 83.969704 34 34 34 -0.996843 0.074252 -0.028132
22.125700 -19.606800 86.013901 37 37 37 -0.893345 0.443715 -0.071077
22.685499 -19.548100 11.818600 36 36 36 -0.772730 0.621567 -0.128614
22.682899 -19.548100 15.308900 6 6 6 -0.584280 0.181032 -0.791103
22.558599 -19.539900 15.663400 136 136 136 -0.745993 0.648456 -0.151653
22.653400 -19.507900 63.333698 27 27 27 -0.537529 0.713030 -0.450167
22.683701 -19.535700 65.977501 33 33 33 -0.916563 0.237998 -0.321356
22.580099 -19.497999 68.762001 49 49 49 -0.768393 0.555610 0.317600
22.373899 -19.518999 72.903297 21 21 21 -0.997904 0.021531 0.061031
22.432199 -19.521000 74.265800 37 37 37 -0.908558 0.354740 0.220638
22.348301 -19.548500 75.663101 35 35 35 -0.963305 0.253400 0.088503
22.428600 -19.128901 79.062103 8 8 8 -0.453264 0.836657 0.307500
22.158899 -19.435900 79.864403 31 31 31 0.640021 -0.461372 -0.614417
22.126900 -19.507500 82.615196 43 43 43 -0.956680 0.275249 -0.094874
22.162201 -19.490601 83.919998 24 24 24 -0.900540 0.361706 -0.241240
21.939501 -19.393299 86.162903 13 13 13 -0.855855 0.490079 -0.165331
22.661600 -16.632500 -1.500430 4 4 4 -0.511341 0.094319 0.854186
22.042400 -10.843000 -1.307320 20 20 20 -0.212577 0.204383 0.955531
22.525801 -7.818200 4.448760 50 50 50 -0.139669 0.357627 0.923361
20.691601 -6.091570 3.350120 22 22 22 0.001959 0.998265 -0.058853
20.808399 -6.069440 3.632710 19 19 19 0.012244 0.995648 -0.092386
20.799200 -4.532490 -1.687740 3 3 3 -0.067026 0.186618 0.980143
20.932100 0.399334 6.390540 24 24 24 -0.877946 -0.468132 0.100314
22.327600 1.720340 5.320470 10 10 10 -0.292457 0.911655 0.288712
20.693800 0.810407 6.098210 4 4 4 -0.755564 -0.618307 0.216377
21.172701 1.548830 10.158100 9 9 9 -0.221011 -0.970544 -0.095912
22.471800 4.088080 5.463030 7 7 7 -0.724640 -0.424814 -0.542614
20.875200 2.454430 9.816060 47 47 47 -0.159731 0.929047 -0.333702
21.194401 6.368720 -0.931094 1 1 1 -0.060712 -0.051059 0.996849
