ply
format ascii 1.0
element vertex 709
property float x
property float y
property float z
property uchar red
property uchar green
property uchar blue
property float nx
property float ny
property float nz
end_header
-44.337002 11.453600 2.198220 36 36 36 0.115264 -0.848387 -0.516676
-45.510601 10.906700 4.512630 34 34 34 -0.000399 -0.957103 -0.289748
-42.917198 -89.504997 66.282600 21 21 21 0.003157 0.700411 0.713733
-43.652500 -78.738998 54.662998 22 22 22 -0.015925 0.999736 -0.016545
-43.918301 -78.751999 55.132702 33 33 33 -0.011055 0.999764 -0.018680
-42.706200 -37.643700 -1.141760 11 11 11 0.405333 0.111129 -0.907390
-43.785301 -30.722799 -2.634350 80 80 80 -0.230567 0.972633 -0.028709
-43.800499 -30.816799 -1.074100 14 14 14 -0.000223 0.963817 -0.266566
-43.358101 -30.506300 0.735834 62 62 62 0.024477 0.997908 -0.059836
-43.727402 -9.422710 -2.854450 15 15 15 0.056636 0.042363 -0.997496
-43.818199 7.630270 0.311274 24 24 24 0.050311 -0.756153 -0.652458
-43.978699 6.297190 1.471370 104 104 104 0.046595 -0.603809 -0.795766
-43.895100 11.458200 2.092030 34 34 34 0.106734 -0.622368 -0.775414
-44.018600 10.899300 4.174340 11 11 11 0.085885 -0.958444 -0.272045
-43.323399 13.251300 -2.636720 13 13 13 0.791457 -0.602981 0.100051
-43.563400 13.144800 -0.487894 31 31 31 0.943806 -0.322897 0.070479
-43.303600 12.239000 1.290810 90 90 90 0.985107 0.042593 0.166586
-42.926201 13.897600 7.234590 54 54 54 0.054955 -0.820605 0.568848
-43.298199 14.260600 -0.074840 59 59 59 0.999129 -0.041084 -0.007258
-43.337299 14.395900 0.754379 53 53 53 0.997147 0.062018 0.043024
-41.990898 -89.880997 66.226898 24 24 24 -0.005818 0.684454 0.729033
-41.975800 -78.718399 54.488300 35 35 35 -0.016001 0.999572 -0.024480
-41.972698 -78.712700 54.788601 30 30 30 -0.016176 0.999461 -0.028574
-40.851398 -30.225401 -1.687080 86 86 86 -0.079276 0.990785 0.109824
-41.853802 -30.644100 -0.999600 164 164 164 -0.153683 0.979271 -0.131945
-41.730999 -29.832001 -2.612060 133 133 133 -0.075292 0.948295 0.308329
-40.862499 6.112710 1.356680 91 91 91 0.102994 -0.441077 -0.891540
-41.933201 6.543640 -2.298810 37 37 37 0.414270 0.839943 -0.350536
-41.845100 7.666130 0.368568 28 28 28 0.036866 -0.824102 -0.565241
-41.885399 7.673300 0.743591 26 26 26 0.013814 -0.614534 -0.788769
-40.277500 6.335160 2.754100 123 123 123 -0.087930 -0.855698 -0.509950
-40.599201 10.926700 -1.467220 16 16 16 0.497524 0.763817 -0.411161
-41.080898 10.889400 -0.268735 13 13 13 -0.020323 -0.974945 0.221515
-41.867100 11.493100 2.305670 39 39 39 0.019692 -0.999731 0.012232
-41.881001 11.496800 2.744530 25 25 25 0.019548 -0.999704 0.014482
-41.530102 13.275700 1.659330 76 76 76 0.260662 -0.358004 -0.896598
-41.066601 13.924500 7.140250 62 62 62 0.052416 -0.826236 0.560880
-38.234901 -82.648804 59.432999 42 42 42 0.091297 0.699772 0.708508
-39.944302 -78.685997 54.638802 42 42 42 -0.019379 0.999302 -0.031950
-39.938801 -78.675400 54.788700 43 43 43 -0.019940 0.999476 -0.025497
-39.584599 -31.018499 1.260720 32 32 32 -0.005623 0.963834 0.266443
-39.895802 5.152790 -3.087830 19 19 19 0.391804 0.636200 -0.664634
-40.000198 6.036130 1.265960 94 94 94 0.084066 0.347317 0.933972
-39.804600 7.706870 0.406039 29 29 29 0.017562 -0.999652 0.019687
-39.841000 7.713880 0.762205 30 30 30 0.017414 -0.999573 0.023450
-38.463001 9.988860 0.244401 7 7 7 0.468580 -0.018398 -0.883230
-39.850300 11.533900 2.013690 32 32 32 0.020027 -0.999778 0.006561
-40.038700 11.533500 2.772420 45 45 45 0.019696 -0.999768 0.008686
-39.175701 13.947300 6.852740 58 58 58 0.019034 -0.683018 0.730154
-39.235600 15.716500 0.613213 3 3 3 0.075532 -0.458304 -0.885580
-39.232201 15.714900 0.773868 2 2 2 0.017733 -0.245544 -0.969223
-39.732800 17.863400 -3.087950 255 255 255 0.674539 -0.704126 -0.221820
-37.979198 -82.641296 59.436001 30 30 30 0.140622 0.705096 0.695029
-37.832199 -78.646301 54.668598 38 38 38 -0.016017 0.999413 -0.030297
-37.934700 -78.605797 54.941101 35 35 35 -0.033072 0.999452 0.001091
-36.092800 -25.190300 -1.584440 23 23 23 -0.050935 0.176743 0.982938
-36.410900 -25.686501 -1.271920 24 24 24 -0.149289 0.250493 0.956539
-36.298901 3.947010 3.812740 32 32 32 0.233060 -0.343147 -0.909908
-36.534801 4.155300 3.515280 31 31 31 0.445896 -0.223877 -0.866635
-37.938702 7.741050 0.441313 28 28 28 0.307400 -0.805814 0.506132
-37.810902 6.143760 1.719470 95 95 95 0.111679 -0.512335 -0.851493
-37.869099 6.201800 2.726510 136 136 136 0.146834 -0.765971 -0.625882
-37.690300 8.185660 0.320822 37 37 37 0.737251 -0.464375 0.490731
-37.685600 8.333780 0.771022 54 54 54 0.226151 -0.070842 -0.971513
-37.724899 10.304800 0.271230 32 32 32 0.999010 0.037713 0.023606
-38.016300 11.574600 2.097890 36 36 36 0.017824 -0.999840 -0.001538
-38.012402 11.573200 2.747980 48 48 48 0.016902 -0.999848 0.004297
-37.612499 11.606200 5.084260 44 44 44 0.019729 -0.999732 0.012109
-37.882900 13.971700 6.857220 62 62 62 0.044418 -0.635061 0.771184
-37.832401 17.239201 0.349745 30 30 30 0.101339 0.039423 -0.994071
-37.869499 17.255899 0.873201 27 27 27 0.056868 -0.048948 -0.997181
-36.658600 21.880899 1.259510 22 22 22 -0.057063 -0.164696 0.984692
-37.228600 22.221600 0.189001 28 28 28 0.195036 -0.053266 -0.979349
-37.261101 22.240801 0.734578 20 20 20 0.119830 0.054919 -0.991274
-34.627399 -30.522699 -0.518139 70 70 70 0.306178 0.384693 0.870785
-35.870399 -30.436600 1.444090 28 28 28 0.001965 0.986782 -0.162043
-35.783199 -25.445601 -1.874930 31 31 31 -0.053875 0.244842 0.968065
-35.578701 -24.502100 -0.698047 3 3 3 0.153099 0.097336 0.983406
-34.458599 -23.665899 -0.475801 8 8 8 0.238391 0.050209 0.969870
-35.559502 -8.552970 -2.030580 142 142 142 0.432019 0.727111 -0.533544
-34.570099 -8.964330 0.682009 41 41 41 0.231351 0.948783 0.215146
-34.343399 -9.139990 14.389900 16 16 16 -0.252191 0.820558 -0.512918
-34.140900 -7.042190 -1.599390 3 3 3 0.585220 0.106987 -0.803786
-34.952301 -6.116410 -0.592323 53 53 53 0.747410 0.350783 -0.564207
-35.310699 -5.769010 0.070533 24 24 24 0.667138 0.498698 -0.553378
-35.356098 -5.821680 1.072900 31 31 31 0.565996 0.653333 -0.502797
-35.586102 3.324600 3.363640 25 25 25 0.369276 -0.072089 -0.926520
-36.048000 4.975600 4.237280 49 49 49 0.542939 -0.404157 -0.736121
-34.376701 7.735970 4.908530 56 56 56 0.741040 -0.382452 0.551897
-34.306599 8.222010 2.464250 22 22 22 -0.231414 -0.958667 -0.165544
-34.624599 11.453100 -1.082280 18 18 18 0.627991 -0.773796 0.082868
-35.916500 11.431300 1.875820 42 42 42 0.032498 -0.984285 0.173573
-35.898201 11.623000 3.929360 46 46 46 0.015048 -0.999621 0.023047
-35.937901 11.635600 4.748920 48 48 48 0.017668 -0.999724 0.015491
-35.975201 12.149200 1.727120 37 37 37 0.076962 -0.902346 -0.424085
-35.381500 14.017400 7.073670 64 64 64 -0.006743 -0.673507 0.739150
-32.799000 -31.897301 -0.437365 17 17 17 0.249892 0.119470 0.960875
-32.764702 -30.995501 -1.430680 24 24 24 0.399181 0.403610 0.823258
-34.035500 -30.228600 0.330022 42 42 42 0.297638 0.296820 0.907364
-33.678101 -23.694401 -2.017670 69 69 69 -0.119621 0.198806 0.972711
-33.729500 -23.604300 -0.691104 31 31 31 0.202959 0.045339 0.978137
-32.395901 -18.666401 9.330370 3 3 3 0.021743 -0.423062 -0.905840
-33.217499 -17.773800 8.105460 4 4 4 0.999142 0.021737 0.035245
-33.302200 -16.546801 9.739030 5 5 5 0.999236 0.016994 0.035193
-33.268501 -15.500800 8.688970 5 5 5 0.999136 0.000448 0.041564
-33.298401 -15.872300 9.258260 5 5 5 0.999326 0.025265 0.026641
-32.089901 -14.853800 10.730400 5 5 5 0.275552 0.597895 -0.752724
-32.204700 -12.237700 12.351600 7 7 7 0.189701 0.044515 -0.980832
-33.652599 -9.359930 -2.081380 1 1 1 0.277577 0.734133 -0.619677
-33.658100 -8.773250 0.716709 92 92 92 0.501487 0.859480 0.099021
-33.649399 -8.770990 0.759150 124 124 124 0.502207 0.859441 0.095659
-32.661701 -8.907950 4.216150 11 11 11 0.275043 0.961225 0.019958
-33.222801 -8.883850 6.182210 10 10 10 0.150350 0.988631 0.001925
-33.992599 -9.043570 7.643040 10 10 10 -0.158702 0.987097 -0.021282
-33.634701 -8.903480 9.215090 2 2 2 0.070503 0.996641 0.041672
-32.572201 -9.418490 12.364500 4 4 4 -0.022598 0.999618 -0.015910
-34.003399 -8.367760 14.456200 14 14 14 -0.016426 0.832880 -0.553210
-32.998100 1.000540 3.820990 31 31 31 -0.031294 -0.019684 -0.999316
-33.933102 4.247630 4.786870 51 51 51 0.078926 -0.215393 -0.973333
-32.065399 7.515020 -1.430180 107 107 107 -0.083332 -0.992527 0.089139
-32.180599 7.414930 -1.236600 75 75 75 -0.009722 -0.988498 0.150922
-33.601002 8.052890 2.588160 32 32 32 -0.202432 -0.969879 -0.135487
-33.587101 8.004790 2.728160 21 21 21 -0.185204 -0.972916 -0.138325
-32.970501 7.419530 4.749960 70 70 70 0.299995 -0.946019 -0.122684
-32.696999 8.316220 1.818280 22 22 22 0.675948 0.689560 0.260002
-33.611801 8.457520 5.590870 23 23 23 0.974542 -0.023924 0.222927
-33.853199 10.679800 0.714710 47 47 47 -0.034284 -0.880233 0.473302
-33.816601 11.658700 2.204030 46 46 46 -0.067679 -0.994141 0.084286
-33.918999 11.646500 2.763360 49 49 49 -0.021925 -0.996863 -0.076049
-33.973900 11.664600 4.729200 44 44 44 0.009833 -0.999261 -0.037154
-32.576000 13.478800 0.638894 48 48 48 0.996068 -0.079597 0.038884
-32.864399 13.405500 1.758590 9 9 9 0.926785 -0.326768 0.185184
-33.953899 14.046500 6.977920 68 68 68 -0.008129 -0.640602 0.767830
-32.555500 14.734500 0.143424 22 22 22 0.996261 0.072262 0.047344
-32.842098 15.163000 1.851530 11 11 11 0.969892 0.213939 0.116357
-33.987400 20.578400 0.512766 9 9 9 -0.082679 -0.163708 0.983038
-34.000198 20.586000 0.764026 15 15 15 0.078954 0.104590 -0.991376
-31.601500 -30.502399 -2.225380 104 104 104 0.245957 0.968238 0.044942
-31.814400 -30.478300 -0.332574 94 94 94 0.208793 0.841475 -0.498322
-30.393499 -19.986500 -1.828210 20 20 20 0.419460 -0.415147 -0.807283
-30.065300 -19.073900 -1.793960 7 7 7 0.280232 -0.221024 -0.934141
-31.998699 -18.652399 9.388810 4 4 4 0.208647 -0.241190 -0.947784
-31.487000 -16.443800 9.965610 1 1 1 0.132099 0.336931 -0.932217
-31.836599 -15.471500 10.239300 2 2 2 0.223206 0.428321 -0.875626
-31.554001 -12.447400 11.750400 5 5 5 -0.177433 0.539260 -0.823235
-31.565800 -12.589300 12.772500 5 5 5 -0.427379 0.745170 -0.511927
-30.354601 -10.757600 13.914600 4 4 4 0.116040 -0.037548 -0.992535
-31.821600 -9.717290 -2.159950 1 1 1 0.340388 -0.520528 0.783063
-31.909901 -9.351970 -1.246200 57 57 57 0.236828 0.940144 0.245033
-31.367599 -9.109550 4.113670 37 37 37 0.190276 0.980410 0.050907
-30.737200 -9.432450 8.188900 2 2 2 0.126340 0.991716 0.023171
-31.860399 -9.428370 10.133900 5 5 5 0.071996 0.993671 0.086219
-32.045799 -9.439950 10.728300 2 2 2 -0.018845 0.999805 0.005897
-31.891001 -9.395330 12.740200 4 4 4 -0.025929 0.999499 -0.018139
-31.584499 -7.723340 -2.513330 1 1 1 0.047270 0.523009 0.851015
-31.692400 1.918550 4.211640 20 20 20 0.049427 -0.060708 -0.996931
-30.505699 3.547850 3.385520 42 42 42 -0.046698 -0.155105 -0.986794
-30.056101 4.846120 -2.455290 13 13 13 -0.042401 -0.696856 0.715956
-32.042999 7.552140 -1.396440 83 83 83 -0.098953 -0.992568 0.070826
-32.020599 7.546850 -1.229820 73 73 73 -0.090861 -0.992645 0.080000
-32.031200 7.634580 0.735428 66 66 66 0.055344 -0.968658 0.242156
-31.482700 8.132610 2.421240 79 79 79 0.260607 -0.961168 0.090776
-31.841801 11.699100 2.264660 51 51 51 0.022262 -0.999668 -0.012934
-31.929399 11.685500 2.756370 49 49 49 0.019883 -0.999788 -0.005387
-31.966700 11.698400 4.748420 53 53 53 0.017984 -0.999795 0.009313
-30.452600 12.737800 -1.339930 13 13 13 -0.247814 -0.855259 0.455105
-31.801901 14.010500 -0.736296 11 11 11 0.829891 0.361905 0.424625
-31.938000 13.261800 2.095940 3 3 3 0.847722 0.211827 -0.486309
-30.093500 13.525000 9.250460 62 62 62 0.021104 -0.900265 -0.434830
-31.801001 20.027000 0.658627 30 30 30 0.196680 0.048144 -0.979285
-31.836300 19.992701 0.765170 29 29 29 0.179997 0.035810 -0.983015
-30.227699 23.280199 1.770240 3 3 3 0.110969 0.101600 -0.988617
-29.828199 -30.735500 -1.993390 16 16 16 0.030862 0.999500 0.006885
-29.916201 -19.191601 -1.881510 7 7 7 0.323427 -0.241766 -0.914846
-29.901501 -18.608101 9.472380 4 4 4 0.041169 0.260246 -0.964664
-28.060900 -17.556101 -2.343130 255 255 255 0.721911 -0.684063 -0.104414
-29.964600 -17.166300 9.851020 2 2 2 0.049731 0.245109 -0.968219
-28.083900 -11.988000 14.441200 48 48 48 0.378615 -0.197461 -0.904245
-28.336500 -11.591200 10.622800 20 20 20 -0.118934 0.985130 0.123992
-29.085501 -11.474300 12.213200 1 1 1 0.007017 0.999301 0.036708
-29.949600 -10.697900 13.954900 3 3 3 0.111034 0.003002 -0.993812
-29.878300 -9.083150 -2.192880 14 14 14 0.016333 0.294347 0.955559
-29.224100 -8.644230 -1.160370 44 44 44 0.029574 0.996737 0.075111
-29.974100 -9.198290 8.069540 2 2 2 -0.212166 0.976544 -0.036697
-29.361601 -8.970350 9.432340 1 1 1 -0.198374 0.979720 0.028217
-30.018600 -9.378810 11.071800 3 3 3 -0.026449 0.999452 -0.019898
-30.038401 -9.056900 14.019000 41 41 41 0.179765 0.115765 -0.976874
-29.470900 -7.480770 -2.442550 1 1 1 0.202661 -0.138439 -0.969414
-29.986700 3.753700 3.766480 43 43 43 0.001133 -0.185481 -0.982647
-29.855801 4.852440 -2.485350 12 12 12 -0.019797 -0.893872 0.447884
-28.813900 4.792080 3.613450 51 51 51 0.074958 -0.249741 -0.965407
-30.031401 7.316180 4.645850 105 105 105 0.527917 0.713245 -0.461071
-29.785700 7.256150 5.041080 104 104 104 0.585092 0.554643 -0.591641
-28.877899 8.198710 7.323210 77 77 77 0.030180 -0.566767 -0.823325
-29.598400 11.989600 -1.933100 15 15 15 -0.075887 -0.866711 0.493005
-28.976700 11.737100 -0.044451 1 1 1 0.995715 -0.092214 -0.006888
-29.557899 11.753500 2.405770 46 46 46 0.007534 -0.999732 -0.021898
-29.617800 11.734700 3.670020 52 52 52 0.023267 -0.999727 0.001881
-29.640200 11.743200 4.772500 53 53 53 0.019719 -0.999777 0.007579
-29.650000 12.224400 0.471346 231 231 231 0.868265 -0.472810 -0.150218
-29.048300 13.455900 1.468230 20 20 20 0.899780 -0.430204 0.072940
-29.865101 13.513100 9.168520 38 38 38 0.036959 -0.897071 -0.440338
-28.733101 14.333800 0.603101 65 65 65 0.996109 -0.022072 0.085315
-28.737499 14.336000 0.764703 66 66 66 0.994377 -0.022449 0.103493
-29.697399 18.701799 1.894760 22 22 22 0.099873 -0.027578 -0.994618
-29.633900 21.945999 1.782930 3 3 3 0.148439 0.135978 -0.979528
-29.579500 22.545601 1.818150 9 9 9 0.145240 0.121513 -0.981906
-26.599501 -33.067699 -0.328349 18 18 18 0.842061 -0.481071 -0.243933
-26.353901 -30.042101 2.945470 66 66 66 0.625980 0.697754 0.348265
-27.072300 -23.030100 1.236390 10 10 10 0.100683 0.511966 0.853085
-27.894600 -18.493500 -2.113550 67 67 67 0.387363 -0.013161 -0.921833
-27.901899 -17.701099 -2.415270 255 255 255 0.558566 -0.702293 0.441349
-26.092100 -15.205800 -1.302870 9 9 9 0.728249 0.685050 0.018979
-26.305099 -15.866400 -1.095230 1 1 1 0.827353 -0.560641 -0.034190
-27.341499 -14.539900 3.050840 84 84 84 0.547805 -0.200285 -0.812278
-26.802000 -14.388000 14.719900 49 49 49 0.681681 0.021886 0.731322
-26.694300 -15.790100 14.862600 46 46 46 0.743981 0.068225 0.664708
-27.337500 -13.239600 1.948240 95 95 95 0.999285 0.020653 0.031676
-27.370001 -13.511900 3.170840 91 91 91 0.999722 0.000148 -0.023594
-27.466600 -12.254300 5.811460 4 4 4 0.983101 -0.059664 0.173070
-27.548700 -12.208900 8.319010 4 4 4 0.998511 -0.040690 -0.036322
-27.558399 -12.255200 8.869530 4 4 4 0.976427 -0.197263 -0.087622
-27.988899 -11.989000 14.461000 48 48 48 0.350472 -0.153585 -0.923894
-26.798901 -13.446300 14.917500 65 65 65 0.819070 0.097719 0.565310
-26.109301 -11.763500 -1.633260 10 10 10 0.917482 -0.370048 -0.145915
-26.497000 -11.819400 -0.803538 8 8 8 0.546094 -0.828371 -0.124830
-27.359900 -11.794600 1.705240 80 80 80 0.999337 0.019999 0.030418
-27.417801 -11.739300 3.504240 98 98 98 0.953477 0.138179 -0.267933
-27.548401 -9.994830 6.671970 99 99 99 0.997916 -0.059292 0.025472
-27.548100 -11.470700 7.943580 101 101 101 0.999035 0.031478 0.030629
-27.821899 -11.667500 10.369300 46 46 46 0.003009 0.984774 0.173815
-28.014900 -11.666300 10.752200 45 45 45 -0.078264 0.993011 0.088335
-28.028700 -11.631500 12.757000 44 44 44 0.077859 0.996868 -0.013840
-26.837200 -11.656000 14.757300 63 63 63 0.320609 -0.029758 -0.946744
-27.938000 -8.917410 -2.260370 14 14 14 0.074583 0.390192 0.917708
-27.559700 -9.802260 5.843820 30 30 30 0.999431 -0.029078 -0.017104
-27.978399 -8.778710 7.554830 15 15 15 0.658603 0.740514 0.133717
-28.019501 -8.753460 8.744980 13 13 13 0.454190 0.890902 0.002198
-28.022301 -9.655040 14.443300 51 51 51 0.325051 0.002535 -0.945693
-26.891100 -9.644740 14.747000 66 66 66 0.321220 -0.014349 -0.946896
-26.339899 -7.181870 -2.384110 0 0 0 0.575074 -0.247918 0.779632
-26.943199 -6.875690 -0.262325 46 46 46 0.566132 -0.671217 0.478499
-26.845301 -7.249980 0.808128 205 205 205 0.940967 -0.298970 -0.158742
-27.820801 -5.628730 -1.681510 44 44 44 0.532992 0.052919 -0.844464
-27.673901 -5.708280 -1.154120 12 12 12 0.475598 0.188389 -0.859253
-27.976900 4.908250 -2.456130 6 6 6 0.032585 -0.941261 0.336105
-26.483400 5.683020 -1.187320 18 18 18 0.081098 -0.864349 0.496310
-26.836399 6.254610 -1.707130 43 43 43 0.062364 -0.393535 0.917192
-26.980000 8.212000 7.804090 27 27 27 0.546433 0.525052 0.652481
-26.147600 12.073100 -1.349490 101 101 101 0.433126 -0.853945 0.288408
-26.130501 12.105200 -1.248760 202 202 202 0.613539 -0.766097 0.191483
-28.034500 11.766200 2.699510 53 53 53 0.015157 -0.999885 -0.000256
-28.035400 11.766600 2.738110 55 55 55 0.016105 -0.999870 -0.000780
-27.962200 11.775600 4.772990 54 54 54 0.016528 -0.999844 0.006271
-28.046801 13.379700 0.521153 64 64 64 0.595198 0.781759 0.185989
-27.365499 12.928400 2.170500 13 13 13 -0.063661 -0.438030 -0.896703
-27.318001 13.926200 7.634510 71 71 71 0.227599 -0.946956 0.226877
-26.801001 13.576800 8.998470 68 68 68 -0.027781 -0.744678 -0.666845
-27.814600 14.267900 8.095840 78 78 78 -0.120526 -0.947559 -0.295983
-27.932899 16.672899 0.428008 2 2 2 0.925203 -0.311967 -0.216045
-27.759600 16.711599 1.986280 0 0 0 0.045628 0.150184 -0.987605
-27.215000 20.047300 1.998550 1 1 1 0.218522 0.130546 -0.967060
-27.766701 20.779400 1.942330 1 1 1 0.196847 0.102485 -0.975063
-25.852100 -32.894699 -0.318445 21 21 21 0.883202 -0.466785 0.045451
-25.104900 -30.267599 0.388881 66 66 66 -0.020598 0.925758 0.377554
-25.390100 -30.842600 1.438670 11 11 11 -0.049126 0.806702 0.588913
-25.860901 -29.553400 3.157530 47 47 47 0.708281 0.705634 0.020465
-25.894501 -24.751600 14.520000 101 101 101 0.999851 0.010470 0.013746
-25.900999 -25.710199 15.310700 100 100 100 0.999303 0.009938 0.035972
-25.768700 -22.205000 9.361200 23 23 23 0.999450 0.019414 0.026878
-25.870199 -22.294399 12.666900 97 97 97 0.999576 0.002906 0.028960
-25.880899 -23.701700 13.713200 101 101 101 0.999527 0.012439 0.028119
-25.910900 -23.669600 14.724500 107 107 107 0.999568 0.012500 0.026616
-25.579500 -21.760099 1.210470 15 15 15 -0.222713 0.485744 0.845253
-25.806400 -21.404301 9.471990 17 17 17 0.999691 0.015887 0.019126
-25.859301 -21.780399 12.291900 72 72 72 0.999567 0.000863 0.029412
-25.884100 -21.636000 12.760400 117 117 117 0.999564 -0.005547 0.029009
-25.934900 -21.845699 14.746200 109 109 109 0.999587 0.009009 0.027299
-25.332701 -18.256599 0.402009 15 15 15 0.817801 0.234429 0.525589
-25.856501 -19.439400 10.597300 56 56 56 0.999407 0.012687 0.032012
-25.858000 -19.747700 10.769700 31 31 31 0.999471 0.012678 0.029952
-25.901899 -19.680500 12.732700 80 80 80 0.999576 0.012452 0.026336
-25.969900 -19.682400 14.764700 111 111 111 0.999327 0.012115 0.034618
-24.623400 -17.555901 -1.472240 18 18 18 0.864284 0.417294 0.280855
-24.806900 -17.359900 -1.231910 5 5 5 0.804966 0.368010 0.465402
-25.832100 -17.697399 9.204150 119 119 119 0.999614 0.010104 0.025899
-25.890301 -17.643400 10.750800 59 59 59 0.999383 0.006210 0.034559
-25.942101 -17.679899 12.749500 131 131 131 0.999583 0.010187 0.027036
-25.981001 -17.660200 14.765500 90 90 90 0.999847 0.010781 0.013767
-25.846901 -15.281500 -1.627340 12 12 12 0.739747 0.663513 0.111918
-25.815399 -15.350100 -1.231460 21 21 21 0.716286 0.687325 0.120494
-25.705500 -15.461100 0.729362 116 116 116 0.983709 -0.056877 -0.170534
-25.700899 -15.022900 4.137450 126 126 126 0.994140 0.051205 -0.095200
-25.727200 -15.696600 4.869200 131 131 131 0.999354 0.014292 0.032984
-25.851900 -15.686000 9.110660 103 103 103 0.999110 0.012589 0.040253
-25.922199 -15.640600 10.746100 48 48 48 0.999105 0.015880 0.039209
-25.973499 -15.672600 12.739100 131 131 131 0.999557 0.013458 0.026542
-25.738701 -13.810900 0.656970 81 81 81 0.938230 0.030158 -0.344695
-25.712799 -13.838200 0.739361 110 110 110 0.947492 0.024304 -0.318853
-25.704100 -13.793500 3.605910 127 127 127 0.998995 0.017079 0.041447
-25.803801 -13.227800 5.540540 3 3 3 0.993422 0.023649 0.112041
-25.956699 -13.224500 6.731550 2 2 2 0.637375 0.768021 0.062431
-25.875601 -13.846600 9.072940 99 99 99 0.998583 0.048620 0.021619
-25.953899 -13.638200 10.765800 64 64 64 0.999326 0.011759 0.034767
-26.007799 -13.667500 12.756800 142 142 142 0.999479 0.015196 0.028486
-26.011499 -11.759000 -1.582190 8 8 8 0.946166 -0.302095 -0.116227
-26.044300 -11.734700 -0.478643 3 3 3 0.838496 -0.540461 -0.069466
-25.729601 -11.672000 0.752693 99 99 99 0.901468 -0.140134 -0.409535
-25.963800 -11.739500 3.667750 51 51 51 0.675602 0.569880 0.467758
-26.006500 -11.719600 4.759630 53 53 53 0.363437 0.899679 -0.241849
-25.902201 -11.871500 9.011180 68 68 68 0.792429 0.459799 0.400801
-25.981300 -11.671900 10.753000 32 32 32 0.316254 0.947140 0.053931
-26.047001 -11.861600 13.736400 107 107 107 0.905103 0.278124 -0.321613
-25.910801 -8.090800 -2.304250 2 2 2 0.368776 0.132956 0.919960
-25.255699 -7.851700 -2.285310 2 2 2 0.334585 -0.018789 0.942178
-25.899500 -7.096860 -0.139430 49 49 49 0.907208 -0.160206 -0.388983
-25.560801 -5.979360 2.201180 36 36 36 0.956026 -0.293281 0.000713
-25.517700 -6.241440 2.733970 27 27 27 0.896045 -0.418077 -0.149384
-25.091400 -5.736850 -2.411550 11 11 11 0.695875 -0.552119 0.459263
-25.610600 -5.315840 -0.500751 54 54 54 0.581666 -0.573869 0.576488
-25.940001 -5.656910 1.292880 42 42 42 0.878354 -0.430922 0.206880
-25.430201 5.290420 -2.377660 46 46 46 0.151619 -0.618267 0.771205
-24.492599 5.837110 2.722780 74 74 74 0.265052 -0.227949 -0.936903
-25.077299 4.755650 3.473090 76 76 76 0.015041 -0.087877 -0.996018
-24.304899 7.903410 2.622520 56 56 56 0.322138 -0.900256 0.292859
-24.913000 7.756190 4.054330 52 52 52 0.418298 -0.903441 0.093918
-25.727900 6.164110 6.665680 23 23 23 0.645853 -0.727558 0.231375
-25.572201 7.960260 6.898430 37 37 37 0.442069 0.832988 0.332724
-25.926001 8.830440 -2.771140 0 0 0 0.544479 -0.159195 -0.823529
-25.132799 9.521200 4.608610 24 24 24 0.689440 0.037712 0.723360
-25.242201 8.418310 6.504570 26 26 26 0.573732 0.788399 0.221941
-25.620600 8.293800 6.750800 16 16 16 0.524024 0.788662 0.321576
-25.669800 11.852700 -1.895270 27 27 27 0.200928 -0.863907 0.461837
-26.008101 11.810300 2.623930 48 48 48 0.073616 -0.927545 -0.366388
-25.994499 11.804000 2.767330 60 60 60 -0.000110 -0.963771 -0.266732
-25.933300 11.815200 5.347870 51 51 51 0.018381 -0.999802 0.007612
-26.024799 12.256100 -1.327980 89 89 89 0.266932 -0.936794 0.226196
-26.026501 12.256900 -1.255610 93 93 93 0.574751 -0.801969 0.162809
-26.021200 12.293200 2.319410 47 47 47 0.017056 -0.686134 -0.727275
-26.004200 13.587300 8.612210 64 64 64 0.048243 -0.595381 -0.801994
-26.004400 13.587300 8.733520 63 63 63 0.053644 -0.624927 -0.778838
-25.445999 13.580000 10.733000 20 20 20 0.029452 -0.998761 0.040114
-24.938499 14.172400 0.454019 56 56 56 0.974033 0.186918 0.127755
-25.048500 14.908300 2.118980 21 21 21 0.992517 -0.037686 0.116142
-25.973700 14.287000 7.297740 81 81 81 -0.005823 -0.999851 0.016263
-25.461500 14.548600 11.863100 47 47 47 -0.133118 -0.940499 0.312636
-26.012400 19.111000 1.998030 9 9 9 0.177856 0.112809 -0.977569
-23.515200 -30.387600 -1.716940 24 24 24 -0.378716 0.913406 -0.149210
-23.814699 -30.381500 -0.524293 37 37 37 -0.148030 0.978603 -0.142908
-24.046400 -30.207100 0.764011 57 57 57 -0.031565 0.997531 0.062728
-22.740200 -29.773100 -1.900590 78 78 78 -0.206007 0.968742 0.138200
-22.804501 -29.779699 -0.499999 61 61 61 -0.549012 0.829130 -0.105496
-22.838400 -29.746799 0.760972 65 65 65 -0.457201 0.888974 -0.026314
-22.602301 -27.038900 2.490620 117 117 117 -0.034861 0.981080 -0.190440
-23.601500 -27.039101 2.987930 101 101 101 -0.164033 0.788761 -0.592410
-23.573601 -16.585501 -1.375090 72 72 72 0.420802 0.520230 0.743160
-23.641800 -16.500401 -1.002480 33 33 33 0.370746 0.669687 0.643480
-23.831800 -10.919100 -0.168229 25 25 25 -0.259450 0.964273 -0.053512
-23.867001 -10.972800 4.333070 38 38 38 0.431086 -0.895290 -0.112340
-22.552401 -10.472800 4.962790 113 113 113 0.104175 -0.595533 -0.796547
-22.848101 -7.071850 -2.287150 0 0 0 0.328516 0.057979 -0.942717
-23.863100 -5.739360 -2.385940 2 2 2 0.343150 0.749267 0.566434
-22.055401 1.556170 7.273160 40 40 40 0.325796 -0.945292 -0.016743
-22.550900 1.733900 9.140580 41 41 41 0.600186 0.637511 0.483070
-22.554100 2.161850 9.069970 30 30 30 0.688345 0.537288 0.487343
-23.981600 4.425580 -2.718490 0 0 0 -0.074977 -0.821915 0.564654
-22.919600 4.465900 4.350810 75 75 75 0.739086 0.461044 -0.491111
-23.259899 5.883050 6.415790 47 47 47 0.969660 0.213244 0.119522
-23.803900 7.543510 -1.292740 21 21 21 0.437555 -0.899162 0.007355
-23.798599 7.541840 -1.229540 3 3 3 0.440310 -0.897791 0.009902
-23.805000 7.839760 1.565630 62 62 62 0.777517 -0.574414 0.255959
-23.825500 7.946910 3.617840 102 102 102 0.079137 -0.968077 -0.237831
-23.879999 7.236150 6.043960 21 21 21 -0.060539 -0.924017 -0.377528
-22.443399 10.090600 -2.679720 1 1 1 0.018101 -0.265012 0.964075
-23.569799 8.357840 2.593090 50 50 50 0.756745 -0.607009 0.242646
-23.879499 9.046730 3.492620 82 82 82 0.991336 -0.123882 -0.043658
-23.176399 8.349060 4.772000 91 91 91 0.659862 -0.462982 -0.591803
-22.311399 9.262080 7.450150 27 27 27 0.333033 0.484789 -0.808745
-23.990101 11.706000 -2.601740 1 1 1 -0.097206 -0.883415 0.458399
-23.975100 11.846400 2.515880 73 73 73 0.036882 -0.999198 -0.015592
-24.022800 11.832400 2.763130 55 55 55 0.012875 -0.999892 -0.007021
-23.973801 11.844900 4.739430 62 62 62 0.018711 -0.999768 0.010714
-23.806101 12.979300 -0.307766 11 11 11 -0.137053 -0.670748 0.728913
-23.021601 12.891100 2.251680 11 11 11 0.013549 -0.490975 -0.871068
-24.039101 13.657900 8.539940 43 43 43 -0.018190 -0.612702 -0.790105
-24.041300 13.619100 8.735610 74 74 74 0.013007 -0.622588 -0.782442
-22.501699 13.929700 12.497600 5 5 5 -0.057590 -0.994270 0.090054
-24.007099 15.160700 1.987820 4 4 4 0.721845 -0.450040 -0.525742
-24.004101 14.324900 7.303140 77 77 77 0.096008 -0.993306 -0.064238
-23.975401 14.347900 8.736180 83 83 83 0.575567 -0.812407 -0.093364
-23.920200 17.436501 2.082630 3 3 3 0.187066 0.150324 -0.970778
-23.111401 26.603300 41.627499 51 51 51 0.059564 -0.991320 0.117204
-20.563900 -30.011900 -0.662194 9 9 9 0.544244 0.075641 -0.835510
-20.445200 -29.999399 0.729796 4 4 4 0.946512 0.018396 0.322143
-21.496201 -28.144400 -1.662770 54 54 54 -0.685307 0.713811 0.144319
-21.978201 -28.700701 -0.391005 53 53 53 0.119164 -0.074216 -0.990097
-22.013599 -28.672501 0.824388 52 52 52 -0.405381 0.511620 -0.757569
-21.096201 -27.620800 -1.544290 70 70 70 -0.565042 0.804663 0.182333
-21.125700 -27.587400 -0.333258 56 56 56 -0.400851 0.913848 0.064804
-22.016899 -27.023800 2.132410 92 92 92 0.035954 0.995881 -0.083238
-21.998899 -27.002001 2.745350 9 9 9 0.040906 0.998642 -0.032269
-21.295300 -25.284599 2.264260 18 18 18 0.089055 0.050637 0.994739
-20.834101 -18.410200 -0.654619 31 31 31 0.180635 -0.009267 -0.983507
-20.882099 -16.662100 0.794029 28 28 28 0.355383 0.601853 -0.715176
-20.434601 -12.255000 -1.555110 28 28 28 0.296174 -0.405681 0.864699
-21.815701 -10.228400 -0.829466 14 14 14 -0.225360 0.974182 0.013485
-20.644699 -11.346600 0.734997 27 27 27 -0.028693 0.585434 0.810212
-20.833200 -11.247600 5.020660 6 6 6 0.145885 -0.044804 -0.988286
-21.444901 -8.989290 -2.031290 50 50 50 -0.263445 0.691452 0.672674
-20.984400 -9.645730 -1.127270 14 14 14 -0.072970 0.708984 0.701439
-21.400700 -6.682340 -2.272670 0 0 0 0.552370 -0.085789 -0.829173
-20.487700 -7.169440 -1.227010 142 142 142 0.223605 0.253218 -0.941213
-21.866199 -4.824190 -2.336700 5 5 5 -0.148537 0.292689 0.944600
-20.705700 -0.202766 -4.340770 255 255 255 0.761506 0.280400 -0.584367
-20.720100 0.161529 -4.273070 255 255 255 0.822524 0.280382 -0.494813
-21.966600 1.135340 4.413070 9 9 9 -0.065269 -0.195739 -0.978482
-22.043699 1.527740 7.276370 32 32 32 0.332834 -0.942762 -0.020535
-21.894300 2.517450 3.819040 29 29 29 0.098338 0.088031 -0.991252
-21.555700 2.314580 5.159770 27 27 27 0.249430 0.779159 0.575062
-21.947599 4.565920 -2.080460 21 21 21 0.127509 -0.964578 0.230935
-21.227400 4.359710 -1.231840 68 68 68 0.867613 -0.497187 -0.007308
-20.398899 8.083960 -2.397160 15 15 15 0.878639 0.477128 -0.018484
-20.351200 7.769550 0.457764 0 0 0 -0.011473 -0.986074 0.165908
-20.619801 7.871950 1.018510 0 0 0 -0.013579 -0.997214 0.073350
-20.603201 7.894350 2.912620 1 1 1 0.765614 0.597458 0.238494
-20.754499 7.921250 6.319640 1 1 1 -0.045679 -0.931345 0.361262
-20.754601 7.269500 7.848360 58 58 58 0.418268 -0.332324 -0.845348
-21.747999 8.618470 -2.436740 7 7 7 0.197740 0.560357 0.804300
-22.000299 8.686170 0.283703 0 0 0 0.408876 -0.763793 -0.499440
-21.146601 8.318020 1.165250 2 2 2 -0.268019 -0.963122 0.023698
-21.942499 8.247680 6.604960 61 61 61 0.240916 0.686985 -0.685574
-21.362200 9.632490 7.981810 31 31 31 0.375213 0.438225 -0.816807
-21.002001 9.853800 9.772860 43 43 43 0.381715 0.904207 -0.191583
-21.859200 10.666300 -2.678870 1 1 1 0.154447 -0.462382 0.873126
-21.985500 11.879800 2.571390 80 80 80 -0.022708 -0.991223 -0.130235
-21.964701 11.868600 2.759350 50 50 50 -0.003112 -0.990512 -0.137388
-21.985100 11.878800 4.752800 64 64 64 0.015714 -0.999806 0.011851
-21.421400 10.548500 8.382520 48 48 48 0.334227 0.289429 -0.896952
-20.447500 10.260200 10.319900 38 38 38 0.583494 0.791905 -0.180060
-20.304899 12.189900 -1.518770 1 1 1 -0.271029 -0.863859 0.424607
-21.371500 12.793400 -0.899789 1 1 1 0.084051 -0.784218 0.614766
-22.001101 12.907200 2.245430 49 49 49 0.138454 -0.513679 -0.846737
-22.043699 13.648100 8.720330 78 78 78 0.128865 -0.778398 -0.614402
-22.044100 13.648400 8.755860 79 79 79 0.042301 -0.777344 -0.627651
-21.575001 13.658600 10.754300 5 5 5 -0.000772 -0.999989 0.004578
-21.158199 14.388300 0.520793 48 48 48 0.995641 -0.048521 0.079648
-21.162901 14.353100 0.754403 58 58 58 0.985989 -0.163013 0.035385
-22.007200 14.363500 7.372680 79 79 79 0.019466 -0.999750 0.010956
-22.033501 14.379900 8.755790 87 87 87 -0.135871 -0.864624 -0.483700
-21.793400 26.602699 39.951801 60 60 60 0.068100 -0.995055 0.072298
-21.358601 26.748899 41.273102 10 10 10 0.058733 -0.993278 0.099745
-19.767799 -30.888300 0.116080 4 4 4 0.191910 -0.088237 -0.977438
-19.724100 -29.416000 -0.290717 3 3 3 0.330585 -0.067940 0.941328
-19.963100 -26.689100 -2.029070 8 8 8 -0.484962 0.847422 0.216075
-19.775999 -26.857901 -1.256280 51 51 51 -0.379294 0.902598 0.203601
-20.013201 -27.761801 1.545880 3 3 3 0.765427 0.643075 -0.023984
-19.839199 -26.945999 2.739130 56 56 56 -0.001141 0.908056 -0.418847
-18.286100 -24.767300 -2.256160 2 2 2 -0.053895 0.272702 0.960588
-20.032200 -24.397800 1.622770 6 6 6 0.841831 -0.186399 -0.506533
-20.005899 -24.618299 3.072900 67 67 67 0.204408 0.206962 -0.956757
-19.580200 -18.475901 -1.302140 11 11 11 -0.271494 0.962105 -0.025390
-20.033899 -18.808800 -0.930441 22 22 22 -0.286667 0.836647 -0.466737
-18.399200 -17.361500 -1.255460 13 13 13 -0.350484 0.718624 0.600617
-18.056200 -17.831200 8.235660 2 2 2 0.039935 0.646519 0.761852
-19.137800 -11.379300 -1.446110 19 19 19 0.578647 -0.487604 0.653765
-19.961201 -10.167600 -0.793032 33 33 33 0.041315 0.921322 0.386598
-18.976101 -10.648100 0.726806 26 26 26 0.284739 0.918643 0.273897
-19.301500 -10.483900 4.500240 132 132 132 -0.001263 0.950227 0.311556
-19.836100 -11.034500 5.789560 1 1 1 0.053223 0.949442 0.309397
-20.030300 -8.964270 -2.040070 63 63 63 -0.133650 0.873548 0.468030
-19.970900 -9.671030 -1.199790 21 21 21 -0.011940 0.641133 0.767337
-20.047100 -7.788060 -1.092410 13 13 13 -0.077885 0.400753 -0.912870
-18.816000 -3.905130 -1.383410 16 16 16 0.095531 -0.026853 0.995064
-18.563801 -3.441100 -1.409260 8 8 8 0.170467 -0.579460 0.796973
-20.045200 2.050090 3.764900 38 38 38 0.105427 0.527023 -0.843287
-18.277201 1.359470 5.203890 45 45 45 0.487186 0.691855 0.532904
-19.412500 2.704100 4.274900 49 49 49 0.297316 0.265766 -0.917045
-18.805000 2.980830 4.923250 38 38 38 0.445370 0.211861 0.869920
-20.037399 4.910180 -2.537650 12 12 12 0.274195 -0.949138 0.154773
-19.906000 5.977750 3.469330 40 40 40 0.302770 -0.166761 -0.938361
-19.848600 6.373210 -2.736000 5 5 5 0.859441 0.001001 -0.511233
-19.822800 7.596550 -0.786903 9 9 9 -0.248365 -0.948587 0.196209
-19.849899 7.635040 0.755867 1 1 1 0.059879 -0.980877 0.185191
-19.948601 7.672220 2.761340 2 2 2 0.872899 0.484018 0.061431
-20.044701 7.765610 5.885300 0 0 0 0.302465 -0.944137 0.130843
-20.008600 7.519910 7.862480 53 53 53 0.455834 -0.764249 -0.456223
-18.798201 7.968130 9.250300 30 30 30 0.637841 -0.548110 -0.541049
-20.018499 8.549920 -0.047364 1 1 1 0.719170 0.689663 0.084614
-19.859100 8.688360 1.653130 3 3 3 0.955356 -0.226798 0.189362
-18.601299 8.900650 4.691410 54 54 54 -0.020990 -0.936501 -0.350036
-18.742201 8.141840 5.962590 42 42 42 0.295091 -0.947358 0.124234
-20.002600 8.156230 8.060800 44 44 44 0.461968 0.482896 -0.743907
-20.035900 9.928470 8.763580 30 30 30 0.433437 0.540873 -0.720825
-20.022800 11.782700 -2.380870 1 1 1 -0.051131 -0.973919 0.221059
-19.702999 11.828400 -1.126750 2 2 2 0.051763 -0.992849 0.107571
-20.016001 11.912800 2.607730 64 64 64 -0.016929 -0.999567 -0.024047
-20.012400 11.910600 2.725850 45 45 45 0.017912 -0.999709 -0.016160
-20.015499 11.911500 4.768270 67 67 67 0.017274 -0.999785 0.011427
-19.728500 10.497000 8.707260 52 52 52 0.396203 0.395501 -0.828615
-19.698299 10.133700 9.364740 49 49 49 0.537837 0.616266 -0.575281
-20.040001 13.154800 0.041233 1 1 1 -0.134728 -0.547296 0.826024
-20.035500 13.809600 2.484560 31 31 31 0.435303 -0.100262 -0.894684
-18.338699 13.719300 10.160400 85 85 85 -0.066791 -0.952935 -0.295727
-19.924000 15.384400 2.304390 12 12 12 0.525379 -0.116783 -0.842816
-20.024700 14.402400 7.468920 93 93 93 0.021749 -0.959732 -0.280074
-18.812300 14.146600 11.577400 2 2 2 0.067369 -0.969474 0.235759
-19.403601 26.689800 42.905800 42 42 42 0.114420 -0.992064 -0.052126
-16.858000 -37.148499 3.389730 7 7 7 0.376396 -0.225623 -0.898566
-16.219500 -35.741501 3.360690 3 3 3 0.114693 -0.063735 -0.991354
-17.837799 -27.950199 -0.677505 5 5 5 -0.193723 0.973914 -0.118163
-17.147699 -27.859900 -1.731770 4 4 4 -0.822846 0.562201 -0.082800
-18.017401 -27.615200 0.570608 8 8 8 -0.184529 0.896469 -0.402855
-18.016100 -27.613300 0.735338 8 8 8 -0.230421 0.891378 -0.390323
-18.047501 -26.198999 3.249300 9 9 9 -0.170224 0.838461 -0.517693
-16.298800 -20.528299 2.709630 55 55 55 0.123807 -0.123617 -0.984576
-16.869101 -17.916000 2.195820 16 16 16 0.263202 -0.186181 -0.946605
-17.141100 -17.706900 -1.634080 23 23 23 0.433543 -0.358636 0.826693
-17.326500 -16.349300 -1.212290 24 24 24 0.768320 -0.602460 0.216162
-17.159300 -17.071699 2.304050 88 88 88 0.403860 0.474445 -0.782176
-16.136400 -16.713400 3.035640 7 7 7 -0.251600 0.072947 -0.965078
-17.565001 -16.206100 6.271160 8 8 8 0.716915 -0.434250 -0.545398
-18.009399 -17.875099 8.145130 2 2 2 0.014660 0.620867 0.783779
-16.814899 -15.747100 -1.394510 23 23 23 0.815178 -0.544547 0.197365
-16.798500 -15.851000 -1.233560 36 36 36 0.789372 -0.521049 0.324653
-18.014299 -15.480700 1.004850 10 10 10 0.726417 -0.265937 0.633716
-17.867201 -15.553400 6.326570 5 5 5 0.444492 -0.290073 -0.847517
-16.815201 -15.475700 6.886140 3 3 3 0.696291 -0.247247 -0.673830
-16.285801 -13.854100 0.797579 20 20 20 -0.356768 0.928648 -0.101633
-16.737600 -13.775700 6.219850 17 17 17 0.571946 -0.305560 -0.761256
-17.191799 -13.336300 7.216460 23 23 23 0.175707 0.101557 -0.979190
-18.044300 -10.005000 -1.986760 80 80 80 0.806463 -0.214377 0.551054
-17.936100 -9.710340 -2.038390 49 49 49 0.753234 -0.053185 0.655598
-17.691401 -5.941630 -2.102370 20 20 20 0.885892 -0.399532 -0.235734
-17.682199 -5.963650 -0.986655 46 46 46 0.570323 -0.743331 -0.349558
-17.484900 -6.392520 2.510560 26 26 26 0.915923 -0.218200 0.336858
-17.498501 -6.001850 2.759710 38 38 38 0.951292 -0.082298 0.297102
-17.810801 -5.098000 -2.268770 6 6 6 0.849687 0.011100 -0.527171
-17.357599 -5.206000 -0.627832 39 39 39 0.530064 0.753963 -0.388037
-17.569901 -4.437590 1.116030 18 18 18 0.655698 0.747445 0.106711
-17.974100 -5.614640 4.369370 29 29 29 0.858922 0.341165 0.381915
-17.893299 -3.831990 -1.636210 44 44 44 0.159619 -0.381954 0.910293
-17.803900 -3.254380 -1.087590 9 9 9 0.411312 -0.722456 0.555770
-18.027000 1.843560 3.622020 45 45 45 0.601706 0.765333 -0.228508
-17.615000 1.198770 6.164620 13 13 13 0.406070 -0.802678 -0.436824
-17.265499 1.699260 7.213780 2 2 2 0.910906 -0.406864 -0.068648
-18.024200 2.255760 3.621890 59 59 59 0.697431 0.715092 0.047262
-17.997900 3.248370 5.020670 52 52 52 0.580988 0.054900 -0.812059
-16.057699 3.653120 8.322130 25 25 25 0.679451 0.104974 0.726173
-16.308701 3.473790 9.085170 46 46 46 0.717103 0.181257 0.672985
-17.905600 4.769090 4.353590 39 39 39 0.287876 -0.468503 -0.835244
-17.821100 4.340750 4.750240 44 44 44 0.251703 -0.459811 -0.851598
-16.456301 5.808820 8.461520 93 93 93 0.840970 0.284904 0.459999
-17.100800 7.637830 -2.577300 7 7 7 -0.154509 -0.819789 0.551427
-17.224199 7.380990 4.137720 33 33 33 0.468376 -0.683999 0.559258
-18.015600 7.907770 4.821280 48 48 48 0.272610 -0.853933 0.443263
-16.678200 6.947930 7.199030 37 37 37 0.672894 0.557680 0.486011
-17.623800 7.081940 8.938880 31 31 31 0.371903 0.419502 -0.828074
-17.743799 9.331320 -2.483270 6 6 6 -0.045189 -0.146888 0.988120
-16.641500 8.380480 -0.299322 8 8 8 -0.218165 -0.975858 -0.010233
-16.078501 8.198020 0.755007 14 14 14 -0.239081 -0.968528 0.069234
-17.322500 8.612700 4.454910 43 43 43 -0.386361 -0.916904 -0.100057
-17.886900 8.558230 5.786600 17 17 17 -0.010405 -0.970114 0.242428
-18.040001 8.298360 8.115120 95 95 95 0.161437 -0.858722 -0.486347
-17.617800 9.035390 8.821020 45 45 45 0.662750 -0.736247 -0.136754
-16.651800 8.670770 10.857200 41 41 41 0.115931 -0.993084 0.018554
-18.027700 11.834500 -1.400630 1 1 1 0.102700 -0.994270 0.029660
-18.036600 11.840300 -1.238020 1 1 1 0.085146 -0.989968 0.112753
-18.045099 11.941700 2.667200 80 80 80 0.015378 -0.999820 -0.011118
-17.998100 11.943300 2.763800 81 81 81 0.015820 -0.999785 -0.013371
-17.998100 11.942500 4.749500 73 73 73 0.016461 -0.999787 0.012451
-16.072300 10.838900 7.081660 9 9 9 -0.073376 -0.319360 -0.944788
-17.906300 10.141600 10.341200 21 21 21 0.498091 0.540586 -0.677991
-17.309200 13.401600 -1.283020 2 2 2 0.969196 0.171159 0.177097
-18.028200 12.393500 -0.351446 5 5 5 0.130139 -0.477174 0.869119
-18.011700 13.944700 0.727183 10 10 10 0.108034 -0.739787 0.664111
-16.860399 12.483800 6.218190 9 9 9 -0.342204 -0.812368 0.472181
-17.805700 13.708900 9.313210 87 87 87 -0.011711 -0.813826 -0.580990
-17.604099 14.495600 7.837830 19 19 19 0.017612 -0.993091 -0.116015
-17.799801 14.468900 8.804350 94 94 94 -0.378179 -0.777378 -0.502657
-16.575001 115.228996 4.273000 29 29 29 -0.869579 -0.271079 -0.412734
-16.433201 115.278999 4.816340 30 30 30 -0.874436 -0.256965 -0.411497
-15.878900 -34.991001 3.338770 5 5 5 0.116123 -0.060870 -0.991368
-14.687300 -32.044399 3.343110 3 3 3 0.093122 -0.033157 -0.995102
-14.927600 -31.011499 2.151070 2 2 2 0.534034 -0.230604 -0.813406
-15.311200 -31.706499 3.213230 4 4 4 0.114507 -0.032220 -0.992900
-15.907900 -26.436899 -1.909530 14 14 14 -0.337019 0.664517 0.666960
-16.023399 -27.563101 -0.532208 5 5 5 -0.280892 0.959631 0.014398
-15.833000 -27.157499 0.770277 6 6 6 -0.106147 0.869547 -0.482308
-15.872600 -26.306299 2.809690 46 46 46 -0.232691 0.961964 -0.143108
-15.215000 -25.870600 -1.936070 6 6 6 -0.254352 0.702557 0.664619
-14.329700 -25.832100 1.322260 34 34 34 -0.146466 0.988759 0.030039
-15.947800 -25.696501 3.364680 41 41 41 -0.215579 0.899531 -0.379960
-14.308100 -23.713900 3.270830 86 86 86 -0.049950 0.211920 -0.976010
-15.857100 -20.124901 2.737290 105 105 105 0.125211 -0.143538 -0.981692
-14.060800 -18.169901 -1.432050 5 5 5 0.267037 -0.264908 0.926561
-15.997400 -18.144600 2.503660 91 91 91 0.099081 -0.091573 -0.990857
-15.360700 -19.598000 2.737830 43 43 43 0.117433 -0.144369 -0.982531
-14.823500 -17.555599 2.322690 24 24 24 0.194969 -0.239051 -0.951231
-15.860800 -14.704400 -1.281940 15 15 15 0.659855 -0.607318 0.442443
-15.884000 -14.688700 -1.233890 12 12 12 0.659492 -0.608356 0.441558
-14.578000 -14.798300 2.372530 84 84 84 0.077863 0.279596 -0.956955
-14.846200 -15.454200 2.785120 46 46 46 0.388904 0.061978 0.919191
-14.834700 -13.718400 -1.329550 17 17 17 0.635039 -0.406423 0.656921
-15.712900 -13.709700 -0.548027 42 42 42 0.639609 -0.613434 0.463248
-15.685500 -13.445400 0.762850 71 71 71 0.635541 0.759231 0.140198
-15.333200 -12.781700 2.769250 11 11 11 -0.043227 0.200223 -0.978796
-14.438700 -13.870900 6.645490 8 8 8 0.130702 -0.202792 -0.970460
-15.656800 -13.770200 7.763470 40 40 40 0.697183 -0.172668 -0.695788
-14.819600 -10.260700 -0.393237 7 7 7 0.457919 0.481545 0.747278
-15.561000 -10.038600 1.780330 26 26 26 0.136139 0.989892 0.039759
-14.565100 -8.884570 -1.881780 71 71 71 0.020500 0.503939 0.863496
-14.303900 -9.797160 -0.093831 32 32 32 0.797761 0.484039 0.359560
-14.937300 -9.294280 1.712010 55 55 55 0.503121 0.861417 -0.069501
-14.503300 -7.806590 3.272830 12 12 12 -0.012605 -0.022521 -0.999667
-14.494700 -4.847740 -2.233550 30 30 30 -0.007676 -0.143143 0.989672
-15.821700 -5.204550 0.407595 30 30 30 0.529491 -0.844633 -0.078956
-15.918000 -2.970900 -1.942260 18 18 18 0.227490 -0.288781 0.929975
-14.812000 -1.397200 -2.324350 8 8 8 0.087338 0.405290 0.910007
-15.449300 1.894070 4.608680 40 40 40 0.043184 0.305186 -0.951313
-16.036100 1.762070 6.561110 27 27 27 0.400288 -0.726287 -0.558817
-15.349800 2.294650 4.572160 47 47 47 0.107423 0.295801 -0.949190
-15.184800 3.880320 5.606780 38 38 38 0.178676 -0.599255 -0.780364
-15.978600 3.256570 8.718960 58 58 58 0.688370 0.187109 0.700812
-15.972500 3.255310 8.768380 50 50 50 0.700439 0.204135 0.683897
-16.042400 5.552050 4.056660 107 107 107 0.043308 -0.701160 -0.711688
-16.034599 4.140450 5.289530 62 62 62 0.298598 -0.517903 -0.801633
-15.729400 5.843870 7.796310 51 51 51 0.948039 0.241197 0.207474
-15.958700 7.442780 -2.582370 16 16 16 -0.292463 -0.859049 0.420119
-15.345300 7.703900 -1.243140 67 67 67 -0.369547 -0.916065 0.155758
-15.609200 7.277810 2.616820 57 57 57 0.819081 0.219519 0.530016
-15.877400 6.732180 3.597740 28 28 28 0.676453 0.344104 0.651156
-15.990700 6.755470 6.566040 42 42 42 0.863302 -0.428999 -0.265836
-16.003099 6.760620 6.746310 41 41 41 0.848453 -0.464681 -0.253375
-15.814400 7.859970 9.503750 54 54 54 0.084604 0.733126 -0.674809
-14.214000 6.710160 10.815700 42 42 42 0.032652 -0.999407 -0.010888
-15.814000 8.316450 -2.258810 42 42 42 0.800856 0.454028 -0.390497
-15.948100 8.386420 -0.704776 0 0 0 0.620662 0.783350 -0.033782
-15.947200 8.256740 2.567760 80 80 80 0.509980 0.838589 0.191544
-16.004700 8.261070 2.765590 89 89 89 0.519299 0.834889 0.182454
-15.853400 9.165740 6.409360 28 28 28 -0.013613 -0.896260 0.443320
-16.033701 9.323340 7.195150 9 9 9 0.142141 -0.445695 -0.883828
-15.980300 8.707690 9.846070 42 42 42 0.272778 -0.920062 -0.281208
-15.049000 11.926400 -1.442380 79 79 79 -0.033415 -0.999441 0.001435
-15.054600 11.930700 -1.248810 77 77 77 -0.017743 -0.999842 0.000826
-15.999000 11.972300 2.715200 81 81 81 0.014631 -0.999851 -0.009115
-16.000099 11.973100 2.766550 91 91 91 0.014341 -0.999843 -0.010447
-16.035299 11.410200 6.558270 49 49 49 -0.502450 -0.731371 -0.461130
-16.014900 10.858700 7.000910 47 47 47 -0.267774 -0.392010 -0.880128
-14.552900 10.972400 8.930540 9 9 9 0.592053 0.707814 -0.385322
-16.018999 12.499300 -1.927520 47 47 47 -0.185376 -0.542474 -0.819365
-15.697400 12.407700 0.664561 2 2 2 -0.441765 -0.897130 0.001224
-15.674000 12.389000 0.764124 2 2 2 -0.431394 -0.902161 -0.002193
-14.755200 12.527900 6.250910 10 10 10 -0.062033 -0.768592 0.636725
-15.918000 14.039500 7.280140 11 11 11 0.000259 -0.847271 0.531161
-16.019800 13.809500 8.810790 73 73 73 -0.166436 -0.205831 -0.964330
-16.014900 14.487000 7.546920 31 31 31 -0.032520 -0.994899 0.095490
-16.011999 14.301400 8.992590 61 61 61 0.035243 -0.684081 -0.728554
-14.365400 93.925301 37.163101 65 65 65 0.463932 -0.878583 0.113396
-14.140700 94.021698 40.036098 58 58 58 0.700446 -0.712235 0.045783
-14.387900 94.053703 42.694599 53 53 53 0.501791 -0.861589 -0.076617
-14.387800 94.053001 42.834301 61 61 61 0.501009 -0.862191 -0.074940
-15.985500 115.290001 3.539980 32 32 32 -0.874630 -0.262115 -0.407820
-15.947300 116.084999 5.296500 31 31 31 -0.887585 -0.225276 -0.401801
-14.032900 -33.109001 3.433260 6 6 6 0.124992 -0.052365 -0.990775
-13.853600 -31.046000 3.391360 2 2 2 0.107026 -0.014997 -0.994143
-12.598100 -29.417101 3.513470 3 3 3 0.175724 -0.046957 -0.983319
-14.025000 -26.606300 -0.199630 3 3 3 -0.553601 0.744706 -0.372746
-13.821300 -27.209400 2.056640 1 1 1 0.886110 -0.134113 -0.443647
-13.596000 -26.191500 3.269060 3 3 3 -0.692205 0.676967 0.250136
-13.207100 -24.977699 -1.690720 13 13 13 -0.498188 0.759915 0.417538
-13.303800 -25.705500 -0.031151 4 4 4 -0.571847 0.817918 -0.063260
-13.842700 -25.633900 1.344360 43 43 43 -0.168060 0.981480 0.091943
-13.805100 -25.565399 2.956450 26 26 26 -0.293385 0.932876 -0.208969
-13.880400 -25.257401 13.210400 15 15 15 -0.447530 0.894221 -0.009285
-12.822900 -24.715000 16.068399 64 64 64 -0.448798 0.892145 0.051549
-12.431500 -23.158199 -1.944460 7 7 7 -0.480463 0.467016 0.742328
-12.809700 -23.232000 3.386020 54 54 54 -0.137236 0.123043 -0.982867
-13.263400 -20.104900 -2.095670 10 10 10 0.228712 0.162089 -0.959905
-13.902900 -20.292500 2.964560 111 111 111 0.096990 -0.117807 -0.988289
-13.199400 -18.211700 -0.835153 7 7 7 0.986452 0.027863 0.161667
-13.566500 -17.948799 2.713730 108 108 108 0.102494 -0.126076 -0.986712
-13.856600 -19.020500 2.819630 58 58 58 0.099108 -0.123590 -0.987372
-12.971000 -17.114000 -2.292080 3 3 3 0.986599 0.001455 0.163155
-13.196300 -16.029400 -0.739583 19 19 19 0.996159 0.071638 0.050344
-13.859400 -17.589600 2.619670 91 91 91 0.127405 -0.118119 -0.984792
-13.053700 -16.313299 2.724690 112 112 112 0.237023 -0.174329 -0.955735
-13.648100 -17.688101 7.648240 5 5 5 0.138408 -0.109558 -0.984297
-13.305000 -15.437300 -1.350660 52 52 52 0.956669 -0.288613 -0.038564
-13.343800 -15.802200 0.160992 111 111 111 0.967270 -0.245234 0.065188
-13.659500 -15.689400 1.920160 9 9 9 0.720451 0.692754 -0.032277
-12.307800 -15.146000 2.759930 121 121 121 0.111514 -0.004369 -0.993753
-13.906300 -13.833500 -1.863290 1 1 1 0.366706 -0.179932 0.912771
-13.589600 -12.503800 -1.229130 5 5 5 -0.459865 0.819341 0.342353
-13.054100 -11.892000 2.617880 69 69 69 -0.101980 0.008752 -0.994748
-13.970800 -10.255500 -1.398250 43 43 43 0.832751 -0.181262 0.523134
-14.032200 -10.057700 -1.243390 110 110 110 0.819610 -0.126349 0.558817
-13.848100 -11.543300 1.789270 13 13 13 -0.076231 0.494991 0.865548
-13.871800 -9.629560 -1.427050 59 59 59 0.260936 0.449391 0.854377
-13.995700 -9.873070 -1.264920 19 19 19 0.364363 0.446246 0.817376
-12.357900 -8.742510 2.368210 76 76 76 0.080389 0.350041 -0.933279
-13.903100 -9.093970 2.791870 14 14 14 -0.091546 0.684552 -0.723193
-12.976900 -6.243630 -2.048140 22 22 22 -0.004950 0.103292 0.994639
-13.806900 -7.680050 2.906310 36 36 36 -0.065659 0.231933 -0.970513
-13.846700 -4.534560 -2.321370 19 19 19 0.136418 0.142264 -0.980383
-12.627700 -1.980330 -2.281040 11 11 11 -0.078971 -0.326054 0.942047
-14.024200 -1.322860 -2.309680 10 10 10 0.433002 -0.694912 -0.574114
-12.551600 -0.643928 -1.228550 5 5 5 -0.042637 -0.233408 0.971444
-12.513200 0.648056 -1.284880 2 2 2 0.060808 0.389162 0.919160
-12.568100 0.603600 -1.230360 2 2 2 0.075120 0.355935 0.931487
