ply
format ascii 1.0
element vertex 731
property float x
property float y
property float z
property uchar red
property uchar green
property uchar blue
property float nx
property float ny
property float nz
end_header
-2.846900 -9.217640 3.447130 3 3 3 0.042208 -0.196534 -0.979588
-2.850160 -9.272400 5.069710 6 6 6 -0.104043 0.137458 -0.985028
-2.752310 -9.038950 6.766060 38 38 38 0.013492 0.767534 0.640866
-2.831260 -9.217860 8.566190 16 16 16 0.016789 0.140103 -0.989995
-2.640910 -7.178440 -1.337710 55 55 55 0.112830 -0.131023 0.984938
-2.613660 -6.866280 0.165934 32 32 32 0.041105 0.998893 -0.022874
-2.826390 -7.260460 1.829000 0 0 0 0.019607 0.233842 -0.972077
-2.836180 -5.258650 -1.923410 49 49 49 -0.125386 0.202616 0.971198
-2.842970 -3.260690 -2.077790 22 22 22 -0.016819 -0.012952 0.999775
-2.848230 -1.259340 -2.076520 19 19 19 -0.016309 -0.000518 0.999867
-2.802940 0.741549 -2.073450 25 25 25 -0.012955 -0.001127 0.999915
-2.803380 2.939460 -2.123370 20 20 20 -0.015975 0.038146 0.999144
-2.802570 4.736840 -2.201480 22 22 22 -0.018449 0.058143 0.998138
-2.807630 6.715660 -2.327120 22 22 22 -0.013131 -0.007369 0.999887
-2.809420 8.716240 -2.173290 41 41 41 -0.020176 -0.039515 0.999015
-2.801960 10.736000 -2.120710 36 36 36 -0.018324 -0.024718 0.999527
-1.026090 12.698000 -0.524742 17 17 17 0.084569 -0.813812 0.574942
-2.827880 12.715300 -1.800430 43 43 43 -0.022780 -0.373724 0.927260
-1.354340 13.733700 0.722451 5 5 5 0.842276 -0.313178 0.438737
-2.834340 14.840400 -0.913622 22 22 22 -0.020490 -0.357106 0.933839
-1.612770 15.184900 0.058890 5 5 5 -0.797756 -0.401999 0.449425
-1.601840 15.634800 3.413970 5 5 5 0.034693 -0.999023 -0.027385
-1.620170 15.613600 3.957120 1 1 1 0.073214 -0.997311 0.003279
-2.818270 15.589300 6.614610 9 9 9 -0.022165 0.340376 -0.940028
-2.812870 15.668800 7.722350 7 7 7 0.037025 -0.999293 -0.006547
-2.809030 15.756100 9.469430 5 5 5 0.016220 -0.998641 0.049537
-2.810290 15.755500 11.722300 6 6 6 0.136601 -0.990164 -0.030264
-2.805990 15.840600 13.472500 5 5 5 0.631526 -0.772750 0.063501
-2.812030 15.868200 15.469600 4 4 4 0.101526 -0.989054 0.107073
-2.823170 15.924300 17.469999 4 4 4 0.019301 -0.998031 0.059685
-2.830770 15.838800 21.275400 6 6 6 0.185018 -0.779940 -0.597882
-2.802650 15.794300 21.705400 12 12 12 0.246597 -0.964267 -0.096842
-2.806020 15.920700 24.524599 5 5 5 0.115192 -0.933503 -0.339564
-2.686030 16.188400 25.522301 14 14 14 0.180480 -0.972996 0.143892
-2.828760 15.923600 27.776199 5 5 5 0.105946 -0.914683 -0.390039
-2.690180 15.946200 31.026800 6 6 6 0.094159 -0.909752 -0.404333
-2.561260 16.168400 32.099998 22 22 22 0.008508 -0.990815 0.134959
-2.708860 15.925600 34.315399 6 6 6 0.093352 0.025852 -0.995298
-2.613580 16.353100 36.975601 2 2 2 0.136188 -0.879822 -0.455375
-2.809540 15.903000 37.577099 7 7 7 0.037326 -0.932144 -0.360160
-2.796110 15.934400 40.815899 6 6 6 0.049540 -0.983244 0.175433
-2.790540 16.140600 41.865700 8 8 8 0.033890 -0.990040 0.136649
-2.818070 15.934000 44.062401 5 5 5 0.009405 -0.775011 -0.631878
-2.688460 17.372601 -0.636703 2 2 2 -0.110774 -0.101969 0.988601
-1.852640 18.318001 2.916540 33 33 33 0.103963 -0.399141 0.910977
-2.722440 17.283100 6.812070 10 10 10 -0.002894 0.137010 -0.990565
-1.171460 16.775700 13.861900 21 21 21 0.844903 -0.504038 -0.179121
-1.856730 16.996599 17.268000 4 4 4 0.253153 -0.871467 -0.420070
-2.705520 16.860500 18.027300 8 8 8 -0.085308 0.187231 -0.978605
-2.814740 16.722500 20.706200 5 5 5 0.714339 -0.360326 -0.599904
-1.265740 17.079300 27.369200 8 8 8 0.610633 0.273635 -0.743136
-1.365290 17.527800 27.912500 11 11 11 -0.041834 0.349590 -0.935968
-2.844160 16.725500 34.456699 5 5 5 -0.060402 0.157838 -0.985616
-1.302870 16.931999 37.209900 2 2 2 0.152804 -0.406430 -0.900814
-1.710760 16.730000 37.825199 4 4 4 -0.006623 0.274294 -0.961623
-1.578560 16.883400 41.063499 0 0 0 0.241558 0.111485 -0.963961
-2.809230 18.937300 -0.649424 38 38 38 -0.061841 -0.533562 0.843497
-2.622740 18.992500 0.675381 21 21 21 0.866512 -0.496441 -0.051994
-2.814720 18.966299 2.911510 130 130 130 -0.004090 -0.999991 -0.001088
-2.814040 18.959600 3.878770 121 121 121 -0.019244 -0.999808 0.003786
-2.802990 18.877001 6.622970 132 132 132 0.033886 -0.383393 -0.922963
-1.274540 18.933001 14.764400 9 9 9 0.024100 -0.021950 -0.999469
-2.808290 25.229500 2.722550 16 16 16 0.023413 -0.997504 -0.066609
-2.807920 25.223200 3.725740 49 49 49 0.080462 -0.992232 -0.094873
-2.636360 27.083000 0.322105 26 26 26 -0.566153 -0.801934 0.190717
-2.844070 27.090500 2.775200 3 3 3 0.051918 -0.347267 -0.936328
-2.813490 27.115700 6.400530 7 7 7 0.126542 -0.216013 -0.968156
-0.732987 -23.847601 1.071700 2 2 2 -0.970024 0.129274 0.205770
-0.763137 -23.860500 1.727100 10 10 10 -0.989472 0.120697 0.079863
-0.678881 -22.061701 -1.423130 6 6 6 -0.791751 0.601267 0.107745
-0.795685 -23.073099 0.522881 1 1 1 -0.943445 0.277902 0.180781
-0.624484 -23.176201 1.707350 2 2 2 -0.928088 0.364204 0.077510
-0.418435 -20.202999 -1.279300 4 4 4 -0.926407 0.256180 0.275938
-0.014612 -20.328400 -0.084620 3 3 3 -0.927813 0.289561 0.235197
-0.090037 -21.006701 2.646300 1 1 1 -0.960263 0.275756 0.043046
-0.732060 -19.126400 -0.642061 0 0 0 0.913904 0.014178 -0.405683
-0.605967 -16.957100 -0.793998 1 1 1 -0.026324 0.178492 -0.983589
-0.584858 -16.950899 -0.532144 0 0 0 -0.156811 0.216964 -0.963502
0.694096 -13.308300 -1.434990 3 3 3 -0.405507 0.861400 -0.305867
0.074381 -13.308900 -0.410489 5 5 5 -0.448499 0.893736 0.009207
0.039864 -13.377600 1.721970 1 1 1 -0.994597 0.037343 -0.096865
-0.682857 -14.531000 4.475270 3 3 3 0.059809 -0.076058 -0.995308
-0.613351 -11.478100 -1.547180 0 0 0 0.064617 0.209256 -0.975724
-0.245847 -12.674500 1.277060 1 1 1 0.934571 0.230464 0.271042
-0.672893 -12.613700 1.650530 0 0 0 0.775462 0.557235 0.296895
-0.398935 -13.026500 4.481630 3 3 3 -0.219263 0.286734 -0.932581
-0.660269 -11.608400 8.475470 37 37 37 0.097680 -0.078521 -0.992115
-0.616732 -11.264600 -1.551720 0 0 0 0.055278 0.219363 -0.974076
-0.426244 -9.569360 1.455740 1 1 1 -0.899249 0.415959 0.135386
-0.268751 -11.036000 3.461530 0 0 0 0.888484 -0.093685 -0.449243
-0.676650 -10.909300 4.836310 6 6 6 0.252925 0.440887 -0.861190
-0.760916 -9.868060 7.198410 20 20 20 0.063690 0.605792 0.793069
-0.750124 -11.201300 8.424950 1 1 1 0.063355 -0.095372 -0.993423
-0.847055 -7.499120 -1.724720 46 46 46 -0.009994 0.039617 0.999165
-0.471115 -8.832310 1.325730 0 0 0 0.206164 0.893077 -0.399886
-0.611644 -8.612260 1.918110 0 0 0 0.098797 0.792982 0.601181
-0.715938 -9.125540 5.126920 4 4 4 0.185299 0.571670 -0.799286
-0.655452 -9.265960 7.104230 13 13 13 -0.093125 0.816873 0.569250
-0.630995 -9.264400 8.654120 4 4 4 0.071693 0.066376 -0.995216
-0.848452 -7.262600 -1.735980 46 46 46 -0.011695 0.022018 0.999689
-0.741062 -6.566230 0.283296 0 0 0 0.271891 -0.018078 -0.962158
-0.833722 -7.146340 1.582750 1 1 1 -0.182246 -0.166567 -0.969042
-0.835039 -6.868580 4.440860 0 0 0 -0.988858 0.141802 -0.045295
-0.522215 -5.591070 5.519550 0 0 0 0.998566 0.053366 -0.004249
-0.744275 -5.510770 8.452690 0 0 0 -0.997108 0.032240 -0.068823
-0.631843 -5.130760 -1.269620 3 3 3 0.382891 -0.149213 0.911663
-0.602019 -5.109120 1.459830 39 39 39 0.944482 0.326039 0.040640
-0.607816 -5.105630 2.123560 4 4 4 0.975893 0.213787 0.043909
-0.616922 -5.075500 3.474800 0 0 0 0.997617 0.068645 -0.006968
-0.652249 -5.059030 5.703530 0 0 0 0.995269 0.096064 0.014535
-0.621194 -5.186930 7.982130 0 0 0 0.999789 0.008572 0.018663
-0.649682 -3.058970 -1.569460 16 16 16 0.362588 0.778823 -0.511826
-0.626575 -3.163430 6.920700 2 2 2 0.999926 0.008805 0.008347
-0.700714 -3.162070 7.474680 0 0 0 0.997795 0.046153 0.047697
-0.850562 -1.262590 -2.048830 39 39 39 -0.084506 0.154912 0.984307
-0.801834 0.741755 -2.043170 27 27 27 -0.016032 0.004266 0.999862
-0.803418 2.739040 -2.081180 25 25 25 -0.010913 0.034310 0.999352
-0.802220 4.787730 -2.174700 21 21 21 -0.011241 0.055387 0.998402
-0.806200 6.714130 -2.293200 22 22 22 -0.012773 0.016029 0.999790
-0.803367 8.717250 -2.136300 59 59 59 -0.013286 -0.043036 0.998985
-0.840369 10.741800 -2.085330 48 48 48 -0.021440 -0.024625 0.999467
1.042380 12.696600 -0.056230 17 17 17 -0.733883 -0.638721 0.231197
-0.743343 12.800400 -0.775344 13 13 13 -0.182527 -0.682054 0.708157
-0.843568 13.090000 0.068309 29 29 29 0.164172 -0.805343 0.569623
-0.736266 14.937200 0.869633 2 2 2 0.033571 -0.529082 0.847906
-0.810823 15.633500 1.474250 13 13 13 0.372173 -0.900047 0.226722
-0.811451 15.631500 3.471170 13 13 13 0.064533 -0.997818 0.013975
-0.812611 15.637000 5.472650 9 9 9 0.004381 -0.999859 0.016234
-0.814202 15.645800 7.723130 7 7 7 0.091990 -0.995751 -0.004204
-0.815257 16.043600 9.476190 26 26 26 0.375088 -0.924978 0.061031
-0.846337 15.838300 11.572300 8 8 8 0.039870 -0.998155 -0.045783
-0.810155 15.879900 14.816000 6 6 6 0.195060 -0.947367 0.253864
-0.787507 16.241899 15.676100 11 11 11 0.122944 -0.950832 0.284260
-0.812171 15.881300 18.075500 6 6 6 -0.016952 -0.298988 -0.954106
-0.816872 15.937400 21.323400 6 6 6 -0.031433 -0.086593 -0.995748
-0.753126 15.868100 21.691500 14 14 14 0.091163 -0.957379 -0.274070
-0.818753 15.939600 24.575600 6 6 6 0.022390 -0.860230 -0.509415
-0.817874 16.317900 26.504700 6 6 6 -0.238514 -0.970285 -0.040732
-0.839046 15.905200 27.872900 5 5 5 -0.041955 -0.845031 -0.533069
-0.601281 15.945600 31.115999 5 5 5 0.067478 -0.931719 -0.356856
-0.359406 15.882900 31.476900 2 2 2 0.112790 -0.901958 -0.416832
-0.683911 15.961600 34.372799 5 5 5 -0.026006 -0.837006 -0.546576
-0.446182 16.053200 36.102402 2 2 2 0.250726 -0.966457 0.055659
-0.625150 15.956600 37.687698 4 4 4 -0.175649 -0.527881 -0.830957
-0.706901 15.951200 40.923199 3 3 3 -0.078200 -0.944584 0.318818
-0.758808 16.204201 41.813301 9 9 9 -0.032351 -0.993215 0.111706
-0.753892 16.073200 44.076900 7 7 7 0.106330 -0.956309 -0.272338
-0.491182 18.432600 0.925797 11 11 11 0.458886 -0.742207 0.488418
-0.582400 17.006300 3.407330 9 9 9 0.948147 -0.287847 -0.134768
-0.608475 17.133301 4.230860 4 4 4 0.975707 -0.215276 0.040644
-0.645691 16.948999 5.984380 7 7 7 0.868011 -0.002075 -0.496540
-0.708442 16.829700 12.942300 8 8 8 0.107483 0.182799 -0.977257
-0.812470 16.774000 14.860100 24 24 24 -0.134649 -0.119297 -0.983686
-0.746878 17.175699 16.701200 3 3 3 -0.678051 -0.684044 0.268942
-0.841056 16.883699 18.075500 11 11 11 -0.314474 -0.053736 -0.947744
-0.793342 16.732901 21.374800 11 11 11 -0.082880 0.005346 -0.996545
0.534287 17.131701 23.443100 21 21 21 0.923624 -0.370580 -0.097924
0.333424 16.732300 24.653299 12 12 12 0.054700 0.073432 -0.995799
-0.826532 17.373899 27.399099 8 8 8 0.299865 0.210212 -0.930533
-0.704354 17.587500 27.926100 8 8 8 0.078278 0.367765 -0.926618
0.128741 17.098700 31.188299 11 11 11 0.018207 0.104556 -0.994352
0.701513 16.856701 33.359299 5 5 5 0.204615 -0.802530 -0.560427
-0.767752 16.946501 33.962101 2 2 2 -0.248345 -0.360943 -0.898913
-0.846406 16.781099 37.811100 3 3 3 0.146693 0.104708 -0.983625
0.089780 16.922701 41.119202 2 2 2 -0.171612 0.191312 -0.966411
-0.366909 19.188400 0.976893 22 22 22 0.076577 -0.993323 -0.086285
-0.608724 19.189800 2.055460 28 28 28 0.025521 -0.999660 0.005394
-0.605549 19.070200 3.710310 19 19 19 0.136519 -0.989134 0.054549
-0.689005 18.718599 5.819880 13 13 13 0.898259 -0.305335 -0.316072
-0.812103 18.721399 14.822500 35 35 35 -0.023302 0.008859 -0.999689
-0.424142 20.757999 5.098170 7 7 7 -0.999502 -0.021305 -0.023262
-0.450119 20.738899 6.050770 17 17 17 0.715015 -0.010938 -0.699023
0.537029 23.324499 5.214330 17 17 17 -0.206787 -0.978383 -0.002263
0.126191 23.333300 6.574060 27 27 27 -0.457828 -0.452113 -0.765498
2.862130 -20.683201 -0.674210 0 0 0 -0.173170 0.203637 0.963610
2.887580 -20.673800 -0.524385 1 1 1 -0.116434 0.184724 0.975869
1.942990 -15.961300 -0.537386 2 2 2 -0.271524 0.226071 0.935504
1.883470 -15.967000 0.304324 0 0 0 -0.453725 0.127883 0.881918
1.603270 -16.661200 5.159810 0 0 0 0.175379 -0.107944 -0.978565
2.768490 -16.886700 6.164770 3 3 3 -0.328727 0.613579 0.717955
1.646620 -13.668100 -0.593510 1 1 1 0.373279 0.562656 0.737619
1.799920 -15.258800 0.387402 0 0 0 0.642113 0.506950 0.575059
1.381100 -13.644100 5.190570 1 1 1 0.219135 -0.067116 -0.973383
2.423170 -13.407300 5.613350 2 2 2 0.527312 0.184764 -0.829339
1.370460 -11.373400 -1.377560 0 0 0 -0.261639 0.028363 0.964749
1.476870 -12.659700 0.454412 0 0 0 -0.583303 0.754264 0.301403
2.093770 -11.498200 3.376930 6 6 6 0.862984 0.477252 0.165799
1.309130 -13.262400 5.187220 2 2 2 0.196015 -0.020146 -0.980394
2.136140 -11.411700 5.710680 20 20 20 0.870379 0.456990 -0.183306
1.395180 -11.616100 8.660400 9 9 9 0.099988 0.061763 -0.993070
1.270880 -10.656900 -0.851580 1 1 1 0.486557 0.291661 0.823527
1.392780 -10.161200 0.573575 85 85 85 0.643374 0.580518 -0.499067
1.327570 -10.167400 3.295010 0 0 0 0.617609 0.759510 0.204213
1.156680 -11.286400 5.176570 2 2 2 -0.002219 0.082757 -0.996567
1.365220 -10.166000 5.715550 41 41 41 0.756739 0.642635 -0.119863
1.210180 -11.269900 8.641340 0 0 0 0.105128 0.087735 -0.990581
1.154790 -9.282740 -1.577690 46 46 46 0.098799 0.341989 0.934496
1.248970 -8.946040 1.417470 50 50 50 -0.992253 -0.111674 -0.054431
1.151280 -9.263720 1.717130 89 89 89 0.751933 0.514203 0.412544
1.153970 -7.199330 -1.723550 47 47 47 -0.019182 0.064538 0.997731
1.150560 -5.256580 -1.856980 46 46 46 -0.017581 0.138569 0.990197
1.151440 -3.255320 -2.002260 23 23 23 -0.025481 -0.019793 0.999479
2.868660 -2.081620 -0.522906 10 10 10 -0.619276 -0.785137 0.007515
1.149000 -1.255730 -2.004370 23 23 23 -0.053007 -0.071539 0.996028
2.013720 -0.056915 -0.273191 11 11 11 -0.940773 0.280732 -0.190094
1.388730 0.792870 -1.474090 9 9 9 -0.038403 0.553452 0.831995
1.198740 2.749830 -2.045650 19 19 19 -0.233411 -0.123520 0.964501
1.198450 4.762750 -2.145870 21 21 21 -0.047604 0.076666 0.995920
1.195440 6.717200 -2.277290 22 22 22 -0.013908 0.021116 0.999680
1.844040 7.955690 -0.530135 45 45 45 0.486434 -0.839414 0.242415
1.195790 8.742050 -2.124720 70 70 70 -0.039877 -0.037613 0.998496
1.890210 8.751870 0.320065 8 8 8 -0.877304 -0.122515 -0.464034
1.179990 10.725100 -2.060580 36 36 36 -0.004716 -0.029300 0.999560
1.155130 12.694600 -0.029436 26 26 26 -0.762685 -0.635589 0.119743
1.548030 12.735000 -0.791908 18 18 18 0.201852 -0.708028 0.676722
1.163660 12.788900 -0.094199 11 11 11 -0.741564 -0.566732 0.359023
1.482390 16.517099 0.851679 5 5 5 0.149517 -0.127702 0.980478
1.197900 15.763200 6.674110 8 8 8 0.134402 -0.988626 0.067483
1.172610 15.684900 8.688170 8 8 8 -0.077999 -0.953270 0.291876
1.184590 16.107500 9.725280 25 25 25 -0.036964 -0.998611 0.037547
1.191450 15.915100 11.608800 6 6 6 -0.029499 -0.999527 -0.008704
1.194190 15.926300 14.859300 7 7 7 -0.091302 -0.881066 -0.464098
1.185110 16.335501 15.765600 5 5 5 -0.381235 -0.844900 0.375238
1.177210 15.938700 18.124800 7 7 7 -0.115779 -0.800187 -0.588469
1.242200 15.954600 21.373800 7 7 7 -0.079586 -0.952186 -0.294970
1.241310 15.942700 21.469900 6 6 6 -0.044732 -0.965880 -0.255098
1.244400 15.957100 24.976801 14 14 14 -0.028020 -0.967319 -0.252010
1.333800 16.081699 25.604401 6 6 6 -0.012607 -0.990831 0.134518
1.388890 15.971600 27.510300 3 3 3 -0.017690 -0.956890 0.289912
1.329330 16.002399 29.505600 3 3 3 0.063744 -0.996650 0.051246
1.230550 16.007999 31.720900 4 4 4 -0.034801 -0.960791 -0.275079
1.375410 16.024000 33.603401 3 3 3 0.034417 -0.917386 0.396509
1.296980 16.046400 36.788700 2 2 2 -0.400344 -0.870191 0.287215
1.525800 16.089701 37.661400 7 7 7 0.053559 -0.852579 -0.519847
1.493630 16.181999 40.875198 7 7 7 0.173027 0.907535 -0.382678
1.320520 16.310400 41.896801 5 5 5 -0.158376 -0.987236 0.016771
1.185370 16.136400 44.117298 7 7 7 -0.002953 -0.952863 -0.303387
1.593460 18.514400 0.961968 10 10 10 0.013635 -0.620073 0.784425
1.252590 16.773701 6.676880 6 6 6 -0.004787 0.076640 -0.997047
1.219970 16.815800 16.271000 2 2 2 -0.804884 -0.516079 -0.292958
1.183220 16.877300 18.118799 14 14 14 -0.078965 0.049332 -0.995656
1.178070 16.776501 21.410000 15 15 15 0.071720 0.040768 -0.996591
1.239520 16.754000 22.872000 19 19 19 -0.879686 -0.438939 0.182992
1.180070 16.778900 24.688000 10 10 10 0.000106 0.111951 -0.993714
1.353580 17.076200 27.270700 12 12 12 -0.210986 -0.784622 -0.582970
1.191450 16.917999 27.953199 3 3 3 0.044645 0.143507 -0.988642
1.245060 16.773100 30.748800 14 14 14 -0.380848 0.053904 -0.923065
1.873090 16.857300 33.352001 2 2 2 0.014947 -0.890941 -0.453874
1.721050 16.828899 33.926102 1 1 1 0.403819 -0.357729 -0.841997
1.385170 19.215599 1.102910 14 14 14 0.014401 -0.999742 0.017585
1.185070 19.135700 1.825750 31 31 31 0.003953 -0.999810 -0.019090
1.185630 19.134001 3.469130 18 18 18 0.033268 -0.999436 -0.004572
1.329820 18.740000 6.762850 84 84 84 -0.123226 -0.179888 -0.975938
1.190990 21.350100 4.843300 18 18 18 -0.717567 -0.658460 0.226997
1.179080 21.120001 6.819430 24 24 24 -0.019812 0.063867 -0.997762
1.155770 23.368500 5.324140 32 32 32 0.296749 -0.952504 -0.068382
1.181910 22.750601 6.632860 27 27 27 -0.062192 -0.446912 -0.892413
3.312720 -23.295200 1.022480 0 0 0 0.160919 0.408661 0.898388
4.894710 -22.238899 -0.539822 4 4 4 -0.781225 0.420743 -0.461154
3.381990 -22.755199 0.558357 0 0 0 0.155319 0.286500 0.945407
4.302730 -20.400200 0.309471 0 0 0 -0.182690 0.301849 -0.935688
4.725160 -17.363501 -0.864722 4 4 4 -0.201163 0.101779 0.974256
3.633820 -17.339600 1.114760 3 3 3 0.040720 0.087164 -0.995361
4.717590 -17.780500 1.526970 35 35 35 -0.834260 -0.141415 -0.532928
4.790860 -16.930401 -0.931412 31 31 31 -0.412813 0.260113 0.872884
3.605130 -16.988300 1.410800 50 50 50 0.084259 0.867209 0.490764
3.674140 -16.894400 1.470680 41 41 41 -0.207573 0.245992 0.946785
3.262090 -15.970500 4.466190 40 40 40 -0.090793 0.797626 -0.596279
3.398970 -15.830200 5.572880 13 13 13 -0.950359 0.307007 0.050636
3.390770 -16.398600 8.168310 14 14 14 -0.689148 0.719082 -0.089425
3.448090 -15.407100 9.523060 22 22 22 -0.190452 0.893912 -0.405770
3.224310 -13.660400 -1.143430 24 24 24 0.021318 0.119257 0.992635
3.369370 -13.306100 2.797710 7 7 7 0.767416 0.422789 0.481997
3.338870 -14.647000 3.866620 1 1 1 0.408966 0.866497 0.286232
3.362510 -14.419800 5.571790 30 30 30 0.932105 0.299313 -0.203941
3.884290 -15.108900 8.223150 34 34 34 -0.261357 0.556085 0.788962
3.364940 -15.217100 9.492630 4 4 4 0.137075 0.904722 -0.403346
3.249250 -13.244100 -1.192480 26 26 26 -0.036849 0.125832 0.991367
3.179420 -12.756000 1.356140 21 21 21 0.197322 -0.049547 -0.979086
3.172190 -12.658900 1.507600 14 14 14 -0.275895 0.659567 0.699180
3.229920 -11.252000 -1.430110 40 40 40 -0.050040 0.080831 0.995471
3.156820 -11.106300 1.821180 114 114 114 0.540558 0.225833 -0.810430
3.150980 -9.280090 -1.538510 46 46 46 -0.017300 0.067665 0.997558
3.152160 -7.246790 -1.679770 47 47 47 -0.011522 0.069384 0.997523
3.287960 -5.060180 -1.930260 64 64 64 0.011445 0.138721 0.990265
4.972770 -3.714100 -0.273244 1 1 1 0.592322 0.805679 0.005991
3.156420 -3.256630 -1.944370 22 22 22 -0.141141 -0.129243 0.981517
3.334750 -2.458500 -0.329785 15 15 15 -0.618085 -0.786062 -0.008800
3.152530 -1.254380 -1.995340 7 7 7 0.002367 -0.412672 0.910877
3.364410 -0.302816 -0.519534 5 5 5 -0.241265 -0.839533 0.486802
3.175120 0.938340 -1.123980 4 4 4 -0.568572 0.810254 0.142175
3.197410 2.746770 -2.010880 22 22 22 -0.015421 0.051058 0.998577
3.163510 4.927880 -2.122950 22 22 22 0.013166 0.017917 0.999753
3.395090 6.721970 -2.244470 19 19 19 0.002165 0.039418 0.999220
3.163160 8.041920 -0.527174 20 20 20 -0.088471 -0.983132 -0.160078
3.153080 8.856770 -2.109110 40 40 40 -0.104880 0.065745 0.992309
3.392640 9.055090 -0.395880 7 7 7 0.333780 -0.796492 0.504174
3.193930 10.730000 -2.044470 37 37 37 -0.015561 -0.041451 0.999019
3.323370 12.470200 -0.525098 6 6 6 0.011506 -0.811339 0.584463
4.535960 12.683700 3.426500 5 5 5 -0.327826 -0.482926 -0.811980
4.535250 12.528700 3.726020 23 23 23 -0.455159 -0.335198 -0.824908
3.294950 12.750100 -0.327504 16 16 16 -0.005177 -0.623709 0.781639
4.638370 12.716500 3.447730 36 36 36 -0.381391 -0.437828 -0.814155
4.769540 13.336900 3.470660 25 25 25 -0.568403 -0.091939 -0.817597
3.865730 14.727700 0.360948 13 13 13 0.009471 -0.211611 -0.977308
3.171460 15.826100 6.726080 8 8 8 0.069414 -0.894448 0.441751
3.181790 15.875800 7.475050 8 8 8 0.037076 -0.997900 -0.053113
3.391630 15.979700 9.475870 5 5 5 0.093349 -0.987992 0.123118
3.180450 15.959300 11.722300 6 6 6 0.050301 -0.998423 -0.024932
3.343440 16.034700 13.701800 5 5 5 -0.559247 -0.828807 0.017933
3.261430 16.041100 15.700500 3 3 3 0.038371 -0.992499 0.116075
3.283890 16.040701 17.723499 7 7 7 -0.066573 -0.996130 -0.057392
3.184440 16.060801 19.702801 3 3 3 -0.321464 -0.945803 -0.046022
3.198320 16.019199 21.695499 8 8 8 -0.055696 -0.884109 -0.463949
3.232040 16.080099 23.468599 5 5 5 0.753116 -0.657263 0.028647
3.171290 16.085800 25.468901 4 4 4 -0.037802 -0.998708 -0.033975
3.155890 16.109400 27.800501 5 5 5 0.091755 -0.994583 -0.048834
3.163110 16.141199 29.699600 4 4 4 0.445916 -0.895056 -0.005819
3.210820 16.055799 31.469999 6 6 6 -0.016607 -0.956442 -0.291451
3.163450 16.130800 34.417400 10 10 10 0.067607 -0.676536 -0.733299
4.341710 16.135300 36.291599 2 2 2 0.081817 -0.993297 0.081652
3.388420 16.187700 37.674599 8 8 8 0.012738 0.690408 -0.723308
3.185520 16.227200 40.916302 8 8 8 0.082984 -0.993783 -0.074228
3.345660 16.387400 41.911800 4 4 4 0.018860 -0.993657 0.110863
3.153270 16.161699 44.176899 7 7 7 0.105600 -0.857321 -0.503834
3.289290 18.600599 0.955819 7 7 7 -0.174290 -0.732794 0.657751
3.178900 16.851400 6.717550 35 35 35 0.039255 0.124197 -0.991481
4.008230 16.975800 13.027200 5 5 5 -0.009040 0.102955 -0.994645
3.726720 16.715300 13.493600 5 5 5 0.485000 -0.873076 0.050121
3.199580 16.929001 17.215401 6 6 6 -0.966491 -0.071881 -0.246431
3.299310 17.456900 17.663401 9 9 9 -0.012315 0.462185 -0.886698
3.161500 17.689400 21.425900 14 14 14 0.100915 0.170642 -0.980152
3.575340 16.812500 21.475201 8 8 8 0.101274 0.035252 -0.994234
3.155070 17.769800 24.601900 27 27 27 -0.175703 0.117072 -0.977457
3.676080 16.852600 27.460400 4 4 4 0.481720 -0.254546 -0.838542
3.514150 16.816700 27.526800 2 2 2 0.405068 -0.139987 -0.903506
3.607040 16.825100 33.968201 2 2 2 0.020118 -0.552753 -0.833102
3.312880 16.888100 37.850300 5 5 5 0.010317 0.083428 -0.996460
3.185620 19.284300 1.009350 17 17 17 0.083477 -0.996504 -0.003427
3.369870 19.195400 1.988170 81 81 81 0.024695 -0.999583 -0.014931
3.197520 19.202400 3.717540 15 15 15 0.020986 -0.997603 0.065936
3.193170 18.875900 6.826220 132 132 132 0.081688 -0.256837 -0.962996
4.348000 18.725300 14.940100 30 30 30 0.008713 -0.005792 -0.999945
5.137500 20.847700 1.404540 255 255 255 0.347648 -0.423886 -0.836338
3.526610 21.339701 5.147400 0 0 0 0.298948 -0.448447 0.842333
3.198990 21.171700 6.874050 23 23 23 -0.113412 0.122965 -0.985909
3.632660 23.445499 5.459210 30 30 30 -0.256842 -0.966143 -0.024506
3.209650 22.793400 5.767570 5 5 5 0.847493 -0.530498 -0.018078
6.621390 -31.008400 0.411871 255 255 255 -0.008728 0.049966 0.998713
5.223380 -21.292801 -0.426031 2 2 2 -0.954324 0.293204 -0.057426
5.591810 -20.050699 -0.744141 7 7 7 -0.906652 0.421817 0.007277
5.236640 -21.230301 -0.431785 2 2 2 -0.955723 0.290775 -0.045205
5.949850 -19.259001 -0.548820 2 2 2 -0.547716 0.731665 0.405799
5.894020 -19.250900 -0.436150 2 2 2 -0.663986 0.643684 0.380518
5.165740 -18.526100 1.707830 31 31 31 0.854425 0.510318 0.097644
5.252170 -17.154100 -0.884688 2 2 2 -0.156587 0.022280 0.987413
5.477460 -16.201401 -0.531784 47 47 47 0.281478 0.515161 0.809555
5.393090 -16.222900 2.357980 44 44 44 -0.382957 0.131452 0.914366
5.334720 -17.274700 5.058260 43 43 43 -0.101062 0.219358 -0.970396
5.152980 -16.614599 5.816220 24 24 24 0.200000 0.358896 -0.911698
5.397250 -16.313000 8.432360 27 27 27 -0.434694 -0.475698 -0.764691
5.377980 -15.149300 -1.063830 29 29 29 0.064023 0.231329 0.970767
5.571230 -14.103300 1.213150 24 24 24 0.645294 0.684026 0.340153
5.392710 -15.074300 2.058240 38 38 38 -0.081412 0.866118 -0.493165
5.446320 -14.478600 4.930280 17 17 17 0.005532 0.997599 0.069028
5.379290 -15.041900 6.152690 14 14 14 0.041176 0.593380 -0.803868
5.254050 -15.235200 7.576170 21 21 21 0.106848 0.952925 0.283758
6.535160 -12.888100 -1.257210 15 15 15 -0.920838 0.298537 -0.250864
6.384100 -11.360800 0.995219 20 20 20 0.314816 0.948976 -0.018306
5.741960 -11.614700 3.112290 1 1 1 -0.197850 0.975585 0.095341
6.637980 -11.540900 3.572030 1 1 1 0.309394 0.949968 -0.042844
6.642050 -11.516700 5.717340 0 0 0 0.516286 0.852489 0.081918
6.602970 -11.551100 7.618380 0 0 0 -0.965572 -0.248770 0.076048
5.303200 -11.142900 -1.359040 31 31 31 -0.003479 0.080574 0.996743
6.307940 -11.258500 1.021450 14 14 14 0.437636 0.899110 0.008672
5.645760 -11.206900 3.074000 2 2 2 0.249171 0.966785 0.056925
6.393160 -10.925400 4.939400 0 0 0 0.595663 0.784089 -0.174325
6.350060 -10.914700 5.511400 0 0 0 0.651304 0.757608 -0.042809
6.891150 -11.222200 7.561910 0 0 0 0.790708 0.600596 -0.118593
5.304900 -9.273870 -1.522770 41 41 41 0.020648 0.107214 0.994021
5.153040 -7.235600 -1.735520 49 49 49 0.042457 0.099039 0.994177
5.157750 -5.255410 -1.876810 23 23 23 -0.022816 0.029282 0.999311
5.162420 -3.252580 -1.889540 22 22 22 0.074577 0.104225 0.991754
5.331250 -1.103180 -1.925430 10 10 10 0.058679 -0.005323 0.998263
5.185520 1.589650 -1.948150 23 23 23 -0.006286 0.055345 0.998448
6.490230 2.669400 3.019520 17 17 17 -0.941400 0.287997 -0.175566
6.500310 2.673300 3.473650 95 95 95 -0.973889 0.163746 -0.157252
5.196720 2.745280 -1.986990 19 19 19 -0.022387 0.033288 0.999195
6.397900 2.908220 3.171460 105 105 105 -0.950818 0.308979 -0.021818
6.396220 2.926870 3.471160 99 99 99 -0.951742 0.290312 -0.099525
5.195780 4.742640 -2.082240 21 21 21 -0.159685 0.214829 0.963509
6.398070 4.829100 4.073760 2 2 2 0.086654 -0.044253 -0.995255
6.370750 6.187370 6.821450 2 2 2 -0.994666 -0.083772 -0.060179
6.318530 6.469500 7.521430 0 0 0 -0.994365 -0.089780 -0.056369
5.185680 6.768490 -2.223260 19 19 19 -0.006125 0.039410 0.999204
6.398580 8.011290 -0.286571 2 2 2 -0.867121 0.488023 -0.099671
6.394600 7.702150 3.323040 0 0 0 -0.997184 -0.053279 -0.052781
6.387760 6.811710 3.924460 0 0 0 -0.993755 -0.040233 0.104083
6.283260 7.206890 7.326920 2 2 2 -0.990378 -0.130497 -0.046057
6.307950 6.826150 7.471410 0 0 0 -0.992564 -0.111710 -0.048351
5.194030 8.726200 -2.087590 34 34 34 -0.016970 -0.033117 0.999307
6.368820 8.758720 0.368386 4 4 4 -0.990761 -0.121355 -0.060553
6.369000 8.757770 2.377030 1 1 1 -0.998368 -0.016494 -0.054682
5.272060 10.737000 -1.998090 37 37 37 -0.009155 -0.063448 0.997943
5.581670 12.372500 -0.308975 17 17 17 -0.305530 -0.928871 0.209404
5.230110 12.113400 3.168510 29 29 29 -0.302448 -0.270969 -0.913839
5.381110 12.085300 3.586770 15 15 15 -0.097450 -0.517869 -0.849892
5.159500 12.830200 0.276964 25 25 25 0.025835 -0.936816 0.348867
5.389110 12.835600 2.325900 37 37 37 -0.390531 -0.895680 -0.212703
5.697850 13.669100 3.825520 1 1 1 -0.367216 -0.427120 0.826269
5.315400 14.807100 -0.044730 47 47 47 0.352854 -0.664426 -0.658812
6.079340 14.787200 4.173500 42 42 42 -0.367317 -0.303784 0.879087
5.188080 15.940200 6.773920 6 6 6 0.102090 -0.856242 -0.506387
5.181450 15.850400 7.714510 8 8 8 0.066832 -0.997741 0.006740
5.190900 15.943900 9.701840 4 4 4 0.185991 -0.981988 0.033271
5.195240 16.022200 11.700700 8 8 8 0.061026 -0.991387 -0.115876
5.182840 16.046301 14.972400 7 7 7 0.070155 -0.997503 -0.008145
5.298440 16.473600 15.867600 7 7 7 0.234636 -0.943305 0.234780
5.196610 16.082800 18.212400 6 6 6 0.147548 -0.872867 -0.465116
5.187560 16.117500 21.456499 7 7 7 0.127057 -0.942496 -0.309124
5.195990 16.074400 21.698999 7 7 7 0.132338 -0.983729 -0.121506
5.181990 16.164200 24.712099 5 5 5 0.146481 -0.738374 -0.658291
5.187240 16.463200 25.681499 11 11 11 0.151736 -0.979563 0.132033
5.210950 16.178900 27.951700 5 5 5 0.160930 -0.566924 -0.807898
5.213630 16.181900 31.215900 5 5 5 0.094639 -0.917104 -0.387251
5.188600 16.384899 32.235401 2 2 2 0.097547 -0.988790 0.113042
5.269840 16.211901 34.474098 6 6 6 -0.008510 -0.703061 -0.711078
5.333390 16.691500 36.118801 5 5 5 0.344944 -0.938623 0.001028
5.284250 16.251200 37.724998 7 7 7 0.146824 0.039321 -0.988381
5.290250 16.334499 40.975201 6 6 6 0.103579 -0.929839 -0.353088
5.989450 16.424500 42.017300 9 9 9 0.237893 -0.971275 -0.005696
5.357440 16.188801 44.273399 4 4 4 0.019184 -0.590576 -0.806754
5.190480 16.957500 6.772140 76 76 76 0.038872 0.030211 -0.998787
5.991350 17.005100 13.062600 4 4 4 -0.767676 -0.521506 0.372430
5.175800 18.105700 14.926400 29 29 29 0.010358 0.025907 -0.999611
6.464540 17.035801 16.702600 1 1 1 -0.973045 0.203538 -0.108427
5.446200 16.784599 18.230400 4 4 4 0.104212 -0.112719 -0.988147
5.691400 17.612200 20.924101 4 4 4 0.083126 0.170573 -0.981832
5.834730 18.133200 21.467899 21 21 21 0.008045 0.257573 -0.966225
5.265210 16.713400 24.642500 23 23 23 0.030223 -0.121288 -0.992157
7.145820 16.985399 27.252001 1 1 1 -0.649488 -0.531545 -0.543714
5.192400 16.922600 28.016199 5 5 5 0.053751 0.045784 -0.997504
5.221310 16.786600 29.576799 8 8 8 0.275343 -0.855254 -0.439007
5.398920 16.901699 33.420101 1 1 1 -0.144505 -0.893965 -0.424199
5.355620 16.912100 33.474800 1 1 1 -0.132401 -0.862312 -0.488762
6.624080 16.724600 36.149799 7 7 7 -0.365716 -0.930681 0.009157
5.178540 17.166401 37.914902 3 3 3 0.032760 0.231929 -0.972181
6.309360 16.714199 40.916801 5 5 5 0.167030 -0.402545 -0.900033
5.194570 19.390200 1.105560 27 27 27 0.080341 -0.996207 0.033411
5.310680 19.337700 1.717260 8 8 8 -0.032618 -0.998860 -0.034858
5.283270 19.235100 3.724350 123 123 123 -0.097209 -0.989891 0.103275
5.196850 18.729099 6.757700 71 71 71 0.101703 -0.252463 -0.962247
5.278240 18.735300 14.968300 29 29 29 0.028173 0.025082 -0.999288
5.197950 20.868700 1.390550 198 198 198 0.368692 -0.439724 -0.818968
5.372500 22.033199 4.990910 4 4 4 -0.470481 -0.666458 0.578344
5.290930 21.121000 5.634830 0 0 0 -0.995184 0.022645 -0.095374
5.178380 22.721500 5.161550 32 32 32 -0.234504 -0.962509 -0.136325
5.178710 22.722300 5.468970 33 33 33 -0.107917 -0.994130 -0.007686
9.118700 -23.511900 -0.478949 0 0 0 -0.761458 -0.027252 0.647641
8.888340 -21.462700 -0.598172 5 5 5 -0.655067 -0.018387 0.755347
8.447900 -22.364599 0.076219 8 8 8 0.064233 0.094716 0.993430
7.299460 -20.082199 -0.700025 4 4 4 0.379635 0.803914 -0.457821
7.394080 -19.574499 -0.091043 6 6 6 0.230473 0.936178 0.265429
7.289450 -17.421499 4.736330 67 67 67 -0.944640 0.274979 -0.179001
7.159990 -16.577801 -1.121540 10 10 10 0.300940 0.316382 0.899632
7.158350 -16.577000 2.476620 29 29 29 -0.701780 -0.108271 0.704118
7.333750 -17.044701 4.457830 47 47 47 -0.798026 0.556517 -0.231179
7.321040 -16.610300 6.073080 26 26 26 -0.762785 -0.214640 -0.609991
7.409390 -13.911600 -1.030630 5 5 5 -0.021852 0.010104 0.999710
7.296880 -15.041900 2.413560 32 32 32 -0.435164 0.362710 0.824059
7.238480 -14.830200 4.872850 20 20 20 0.693319 0.700467 0.169276
7.316610 -15.283300 6.364110 33 33 33 0.151364 0.417236 -0.896104
7.298790 -11.297500 -1.373550 26 26 26 -0.425944 -0.058076 -0.902884
7.194950 -11.713700 4.638660 1 1 1 0.543546 0.831906 -0.111759
8.330890 -12.216200 7.574860 40 40 40 0.586203 0.288943 -0.756887
7.228950 -11.250500 -1.375000 28 28 28 -0.421504 -0.054795 -0.905170
7.363860 -11.245300 4.563930 0 0 0 0.029067 0.982411 -0.184456
7.150990 -9.065160 -1.576870 38 38 38 0.048102 0.132900 0.989962
7.158750 -7.257840 -1.734520 21 21 21 -0.044202 0.035723 0.998384
7.371180 -5.056000 -1.817040 20 20 20 -0.020805 0.041690 0.998914
7.168720 -3.246660 -1.844890 20 20 20 -0.017241 0.007526 0.999823
7.172100 -1.250330 -1.893880 19 19 19 -0.018119 0.023158 0.999568
7.166290 1.952720 -1.911030 12 12 12 0.038831 0.101029 0.994125
7.177990 2.745620 -1.946450 17 17 17 -0.017607 0.049009 0.998643
7.485640 3.784420 4.425100 0 0 0 0.351406 0.003642 -0.936216
7.195060 4.781320 -2.042400 17 17 17 -0.005798 0.128099 0.991744
7.537070 5.440490 4.069280 0 0 0 0.070624 0.019260 -0.997317
7.188250 6.728910 -2.181340 20 20 20 -0.073580 0.061073 0.995418
7.283220 8.731160 -2.051300 34 34 34 0.129489 0.098054 0.986721
7.212130 9.219590 -0.384952 0 0 0 -0.820359 0.570708 -0.036114
7.294290 10.725800 -1.951160 29 29 29 -0.017605 -0.046917 0.998744
7.304960 12.063000 -0.230610 23 23 23 0.028123 -0.964649 -0.262031
7.197010 10.930800 3.063840 6 6 6 -0.984908 -0.047419 -0.166455
7.234520 12.433500 3.855590 37 37 37 -0.058772 -0.747874 0.661234
7.295390 12.761300 0.280544 19 19 19 0.224145 -0.626879 0.746178
7.177090 13.004600 1.841810 46 46 46 0.085472 -0.503144 -0.859965
7.341980 12.840500 3.501950 30 30 30 -0.130175 -0.568035 0.812644
7.386620 15.137300 1.370430 9 9 9 0.234977 -0.709150 0.664749
7.645590 15.969800 1.788270 6 6 6 0.344609 -0.367941 0.863634
7.625360 14.720300 4.747820 8 8 8 0.045451 -0.529439 0.847130
7.154050 15.955200 6.823660 5 5 5 0.066245 -0.994603 0.079855
7.177120 15.952300 8.426870 4 4 4 0.014897 -0.986541 0.162834
7.183460 16.294001 9.723470 20 20 20 0.081640 -0.996302 0.026786
7.194890 16.094000 11.774800 6 6 6 0.017875 -0.995026 -0.097997
7.181750 16.115601 15.020800 7 7 7 0.016028 -0.913970 -0.405465
7.188980 16.520300 15.906300 6 6 6 -0.062968 -0.948909 0.309205
7.244460 16.141001 18.263100 6 6 6 -0.056416 -0.273140 -0.960319
7.381650 16.557899 19.704201 14 14 14 -0.424645 -0.905341 -0.005776
7.197300 16.197300 21.524300 4 4 4 -0.021594 -0.909595 -0.414935
7.248720 16.195999 24.761801 6 6 6 -0.080361 -0.922603 -0.377287
7.315030 16.513700 25.767500 11 11 11 -0.404660 -0.894969 0.187833
7.328890 16.209499 28.023001 6 6 6 -0.127979 -0.924897 -0.358033
7.298750 16.191601 31.322901 7 7 7 -0.148672 -0.953064 -0.263753
7.521950 16.195601 31.694500 4 4 4 -0.219122 -0.971878 -0.086247
7.209710 16.208099 34.658600 5 5 5 -0.016798 -0.786977 -0.616754
7.396510 16.239901 35.486099 3 3 3 -0.335159 -0.939352 -0.072709
7.367060 16.444700 37.552799 5 5 5 0.094333 -0.994356 0.048545
7.275630 16.405800 40.802299 4 4 4 0.071093 -0.960815 0.267917
7.152370 16.398600 44.209400 6 6 6 -0.031387 -0.996141 -0.081959
7.988130 16.739599 1.306370 6 6 6 -0.493039 -0.156780 0.855764
7.984460 16.731899 1.469140 7 7 7 -0.175447 0.083878 -0.980909
7.345060 16.719999 6.826370 4 4 4 -0.306817 -0.051284 -0.950386
7.484230 17.028601 13.104100 3 3 3 0.253995 0.119984 -0.959734
7.191530 17.051300 15.054700 17 17 17 -0.048021 0.012638 -0.998766
7.335400 16.973101 16.429100 1 1 1 0.462934 0.500332 -0.731683
7.183730 16.735300 18.191200 10 10 10 0.006090 -0.131479 -0.991300
7.292800 17.652100 21.058100 4 4 4 -0.111023 0.164500 -0.980109
7.471620 18.149500 21.520500 24 24 24 0.224826 0.167782 -0.959845
7.165320 16.971100 27.188499 1 1 1 -0.718996 -0.531056 -0.448359
7.198120 16.806101 34.368900 3 3 3 -0.217525 -0.353882 -0.909643
7.287800 16.718000 37.654900 3 3 3 0.264949 -0.939920 0.215296
7.171710 16.736000 40.924801 4 4 4 0.345292 -0.938190 0.023936
8.873290 18.899500 1.965750 8 8 8 -0.393664 0.208302 -0.895343
7.394580 18.720100 6.973820 89 89 89 -0.131320 -0.137800 -0.981716
7.153630 18.857700 15.025000 28 28 28 -0.037848 0.128089 -0.991040
7.387120 20.737000 6.939240 79 79 79 -0.167540 0.045946 -0.984794
7.204180 22.720699 6.804400 52 52 52 -0.058221 -0.075771 -0.995424
7.648830 25.686600 3.215630 12 12 12 -0.688392 -0.710444 -0.146238
7.391700 25.888800 4.328990 1 1 1 -0.598176 -0.801321 -0.008427
7.391820 25.641701 6.824790 83 83 83 -0.791138 -0.463995 -0.398509
9.312690 -24.558800 -0.056527 5 5 5 -0.280696 0.021590 0.959554
11.067000 -21.694700 6.389320 3 3 3 0.830940 0.554651 0.043610
9.183570 -20.758801 -0.456079 1 1 1 -0.813765 0.180228 0.552544
10.801500 -21.174200 6.172230 9 9 9 0.822305 0.556111 0.120646
9.207150 -19.163401 -0.828925 13 13 13 -0.675914 0.399149 0.619533
9.886460 -19.080400 -0.183966 4 4 4 -0.785665 0.405755 0.467004
10.553100 -15.849200 -0.686687 4 4 4 -0.914584 0.011517 -0.404231
10.478900 -15.568200 -0.228455 1 1 1 -0.961926 -0.026426 -0.272030
10.396400 -14.254900 -0.573018 2 2 2 -0.978141 -0.105866 -0.178976
10.397500 -14.293800 -0.524038 3 3 3 -0.983438 -0.100670 -0.150717
10.396800 -13.180600 -0.824675 15 15 15 -0.984968 -0.133912 -0.109111
9.943140 -11.321800 0.072653 0 0 0 -0.393939 0.605359 -0.691630
9.854780 -12.561400 4.838370 0 0 0 -0.241902 -0.296391 -0.923924
9.151960 -11.162700 -1.448460 13 13 13 -0.388416 -0.203588 0.898713
9.787760 -9.653670 -0.481079 50 50 50 -0.900493 0.434838 -0.005335
9.158280 -9.146770 -1.562270 82 82 82 -0.154140 0.106131 0.982332
9.849880 -9.261460 -0.296293 144 144 144 -0.705102 0.706621 -0.059313
9.333090 -7.248260 -1.649820 17 17 17 -0.043052 0.050807 0.997780
9.268380 -5.285670 -1.751990 57 57 57 -0.037091 0.053300 0.997889
9.172330 -3.242580 -1.812340 16 16 16 -0.017103 0.020748 0.999638
9.974850 0.045405 -0.873841 1 1 1 -0.025222 -0.391589 0.919794
9.330340 1.497400 -0.858352 0 0 0 -0.152202 0.505793 0.849122
9.191200 3.098050 -1.923170 19 19 19 -0.019272 0.051314 0.998497
9.238190 4.732010 -1.994420 18 18 18 -0.022923 0.038269 0.999004
9.197380 7.920030 -2.196840 34 34 34 0.057921 -0.192638 0.979559
9.397960 8.730550 -2.027750 29 29 29 -0.005121 -0.061082 0.998120
9.171190 10.938100 -1.922960 26 26 26 0.019564 -0.049869 0.998564
9.737500 13.078900 -1.328870 33 33 33 0.230089 -0.365197 0.902048
11.133700 14.954200 -1.425110 66 66 66 -0.069962 -0.495841 0.865591
10.763600 15.572900 -0.225697 6 6 6 0.374530 -0.571986 0.729767
10.714500 16.776400 0.413693 5 5 5 0.371733 -0.487352 0.790128
9.155270 19.500099 2.000920 6 6 6 -0.311295 0.199064 -0.929230
10.341300 22.392401 2.596850 17 17 17 -0.453568 -0.163911 -0.876019
10.388400 30.001699 2.658520 28 28 28 0.177995 -0.096975 -0.979241
11.876700 -50.049599 2.133320 97 97 97 0.038409 0.025127 -0.998946
11.592900 -45.771500 2.502250 128 128 128 -0.285055 -0.085838 -0.954660
11.893500 -42.651501 1.977090 41 41 41 0.167008 0.093284 0.981533
12.612600 -21.608700 0.772440 2 2 2 -0.137245 0.200504 0.970032
12.274200 -19.425200 -0.755676 22 22 22 0.270580 0.154174 0.950272
11.152700 -19.442400 0.365804 1 1 1 -0.085533 0.580587 0.809693
11.458500 -20.573099 4.470270 1 1 1 0.720938 0.678951 -0.138829
12.369100 -19.146601 -0.775444 24 24 24 0.252067 0.178186 0.951164
11.352600 -18.066999 -0.446824 1 1 1 0.023693 0.163020 0.986338
11.464100 -18.978901 2.423920 0 0 0 -0.743391 0.583675 0.326640
11.154200 -13.605200 -1.142610 4 4 4 -0.652347 -0.042865 -0.756707
11.319500 -13.843000 0.461549 1 1 1 -0.634862 -0.146996 0.758514
11.210300 -11.803900 -1.076770 7 7 7 -0.170647 0.458328 -0.872247
11.233700 -12.759500 0.397110 1 1 1 -0.609949 0.065605 0.789720
11.397200 -13.047100 4.986790 1 1 1 -0.275857 0.120110 -0.953665
11.205100 -11.134900 -0.976623 4 4 4 -0.364951 0.844341 -0.392298
11.154100 -11.140700 -0.528369 6 6 6 -0.127576 0.990820 -0.044719
11.202000 -9.231350 -1.241290 13 13 13 -0.044468 0.418710 -0.907031
11.161800 -5.362970 -1.674560 96 96 96 -0.024011 0.065522 0.997562
11.344200 -5.276320 -1.681850 114 114 114 -0.019021 0.062608 0.997857
11.324900 -3.112170 -1.759510 14 14 14 -0.023993 0.010009 0.999662
12.091600 -1.288160 1.357560 0 0 0 -0.482642 0.875173 0.033601
11.398600 0.051891 -1.041160 2 2 2 -0.553633 -0.127141 0.822998
12.379900 -0.894670 -0.450749 1 1 1 -0.077484 -0.987324 0.138517
12.064000 -1.040460 1.741100 0 0 0 -0.112207 -0.963558 -0.242829
11.520000 1.863670 -0.900873 2 2 2 -0.075014 0.485879 0.870801
11.176900 3.257690 -1.901140 10 10 10 -0.018665 0.037692 0.999115
11.286900 4.728250 -1.961260 34 34 34 -0.013623 0.032512 0.999379
11.170700 8.524840 -2.158460 17 17 17 0.008864 0.008126 0.999928
11.306200 8.740230 -2.089070 31 31 31 0.018694 -0.026851 0.999465
11.327700 12.331600 -1.922910 31 31 31 0.148455 -0.555487 0.818166
11.223100 13.521900 -0.920809 14 14 14 -0.749860 -0.078516 0.656921
11.282700 14.841600 -1.850640 13 13 13 -0.312903 0.027084 0.949399
12.917800 15.884500 0.988304 2 2 2 -0.834459 -0.238671 -0.496703
12.886100 17.263000 -0.798566 10 10 10 -0.483554 -0.553148 -0.678382
11.214000 17.081600 0.538337 8 8 8 0.333972 -0.517828 0.787602
11.621000 20.386200 1.029300 6 6 6 -0.161691 -0.265336 0.950501
12.655500 20.723600 0.478698 11 11 11 -0.528409 -0.792174 0.305359
12.298700 21.574699 1.620590 6 6 6 -0.633323 0.195117 -0.748887
11.803500 30.332800 2.364380 23 23 23 0.031297 -0.095988 -0.994890
12.105900 29.992201 3.802260 10 10 10 0.695164 -0.609344 -0.381376
11.333700 32.597599 3.382760 6 6 6 -0.219826 0.133979 -0.966295
11.989400 31.279900 3.795260 11 11 11 0.793281 -0.564627 0.227817
13.214700 -49.803299 2.458040 29 29 29 -0.035875 -0.047872 -0.998209
15.085900 -39.633099 1.066580 2 2 2 -0.403038 0.313917 -0.859661
14.362400 -37.590099 0.898259 1 1 1 -0.205211 0.040919 0.977862
13.217200 -22.777300 3.425090 7 7 7 -0.484072 0.396594 0.779992
14.759600 -12.132300 -1.228810 26 26 26 -0.200064 0.134256 0.970541
14.050400 -12.031400 0.294333 5 5 5 0.240044 0.869372 0.431939
13.644500 -9.666430 -1.343720 4 4 4 0.019237 0.117767 0.992855
13.230100 -9.051040 -1.473820 62 62 62 0.025136 0.173110 0.984582
13.180000 -5.361010 -1.628990 16 16 16 -0.023809 0.054288 0.998241
13.243000 -5.251690 -1.644170 112 112 112 -0.023667 0.043741 0.998763
13.542400 -1.527770 -1.741430 12 12 12 -0.549329 0.732200 -0.402642
13.593700 -1.327130 0.770298 1 1 1 -0.628364 -0.777444 0.027185
13.735800 -1.252790 -1.746590 13 13 13 -0.501511 0.791874 -0.348458
13.607600 -1.276280 0.380696 7 7 7 -0.316220 -0.927782 0.198055
13.445800 -0.650023 2.243910 1 1 1 -0.377906 -0.910753 0.166482
13.638900 2.224250 -0.931513 1 1 1 -0.235282 0.231611 0.943927
14.203300 9.934500 -2.109170 50 50 50 0.018416 -0.027384 0.999455
14.890900 10.161000 9.023140 108 108 108 0.102523 -0.151403 -0.983141
14.085400 10.805200 -2.078780 21 21 21 0.058896 -0.072658 0.995616
15.146800 11.703000 9.214430 173 173 173 -0.946946 -0.203195 -0.249007
14.881000 13.581200 -1.958350 1 1 1 0.337885 -0.300398 0.891961
13.396300 15.031600 -1.034760 84 84 84 -0.913025 0.354936 -0.201012
13.395500 15.030300 -0.528550 81 81 81 -0.938354 0.274802 -0.209703
14.885400 15.443500 3.078000 1 1 1 0.553586 -0.709537 -0.436004
13.728100 18.390900 -0.821865 16 16 16 -0.666642 -0.012402 -0.745275
13.185900 17.120300 -0.423992 75 75 75 -0.060033 -0.266488 0.961967
14.124800 18.922300 -0.786203 77 77 77 -0.926362 0.110706 -0.359998
13.646600 20.672300 2.983810 6 6 6 -0.664842 -0.628572 0.403586
13.372900 19.345501 3.706420 11 11 11 -0.841030 -0.503799 0.197118
13.629000 21.045300 1.125060 15 15 15 -0.958961 -0.043813 -0.280133
13.378100 29.353500 2.336180 18 18 18 0.250959 -0.226171 0.941205
15.647800 -73.787697 31.766300 41 41 41 -0.111876 0.857962 -0.501383
15.296800 -40.340900 1.152920 2 2 2 -0.250361 0.172140 -0.952726
15.748100 -39.140499 1.082340 1 1 1 -0.092685 0.142568 -0.985436
15.500100 -35.522701 0.725079 3 3 3 -0.326994 0.196629 0.924344
15.635700 -31.323400 2.690200 22 22 22 -0.243453 0.183950 -0.952309
15.709400 -31.275101 2.624170 18 18 18 -0.207508 0.227298 -0.951460
15.328500 -12.216700 -1.233460 3 3 3 -0.303644 0.089237 0.948597
16.283501 -13.248300 -0.293805 3 3 3 0.169373 0.458011 0.872662
15.240300 -10.653500 -1.335020 20 20 20 -0.011118 0.061852 0.998023
15.159600 -8.925400 -1.437580 47 47 47 -0.081688 -0.132361 0.987830
16.336000 -7.673760 -0.379649 24 24 24 -0.978166 0.207762 0.005058
15.852900 -7.276910 -0.602179 21 21 21 -0.425172 0.898959 -0.105361
15.818200 -7.237140 -0.276257 99 99 99 -0.405475 0.912124 -0.060172
15.162000 -5.104350 -1.624110 65 65 65 -0.014979 0.353766 0.935214
16.290899 -0.889172 -1.733490 4 4 4 -0.482169 0.027500 -0.875647
15.765800 2.490170 -1.681690 1 1 1 0.035890 0.221331 0.974538
16.936600 8.222950 -1.972890 1 1 1 -0.021487 0.033280 0.999215
16.118401 10.078700 -2.051240 52 52 52 -0.002513 -0.015255 0.999880
15.398200 10.706700 9.309290 115 115 115 -0.945338 -0.247173 -0.212700
15.648100 9.697350 9.547790 180 180 180 -0.902342 -0.360802 -0.235798
15.390800 10.962700 9.111730 255 255 255 -0.941918 -0.214352 -0.258542
15.150800 13.347700 -1.980010 0 0 0 0.246981 -0.320422 0.914511
16.593500 16.536501 4.660080 4 4 4 0.478826 -0.854603 -0.200945
17.146601 17.177000 -2.080090 25 25 25 0.025993 -0.995308 0.093198
16.131500 17.691700 0.908569 255 255 255 -0.275231 -0.961306 -0.011738
16.295000 17.691401 2.124370 14 14 14 -0.394402 -0.916562 0.066039
17.593599 -78.060402 3.935640 11 11 11 -0.508483 0.450060 0.734092
17.837299 -49.463699 2.074810 19 19 19 -0.080644 0.164980 -0.982994
17.358601 -36.596600 1.166440 28 28 28 -0.949939 0.287449 0.122427
17.354799 -36.588600 1.470530 37 37 37 -0.887856 0.285854 0.360553
17.845200 -35.196301 1.183550 24 24 24 -0.946496 0.321209 -0.031158
17.813601 -35.244801 1.693700 21 21 21 -0.946786 0.321353 -0.018138
18.509501 -33.228401 1.120450 34 34 34 -0.946715 0.321192 -0.023823
18.480200 -33.274101 1.703080 23 23 23 -0.946095 0.306879 0.103581
18.959900 -32.673698 4.866190 13 13 13 0.021894 -0.047662 -0.998624
18.175301 -29.414900 0.294895 1 1 1 -0.235981 0.258670 0.936698
18.541201 -27.397499 0.076372 3 3 3 -0.418582 -0.083374 0.904344
17.955400 -23.981899 3.160870 4 4 4 -0.385026 0.013621 -0.922805
18.139601 -22.413799 3.069730 14 14 14 -0.096310 0.239101 -0.966207
19.142401 -21.254299 2.860840 9 9 9 -0.054816 0.780182 -0.623147
17.863100 -16.754101 -0.235815 20 20 20 0.145895 0.163401 0.975712
17.644501 -13.846900 -0.126479 7 7 7 0.252912 0.576921 0.776658
18.246599 -9.689060 -1.387390 1 1 1 0.010538 -0.070579 0.997450
17.170799 -8.815700 -1.482100 13 13 13 -0.074479 0.168937 -0.982809
17.367300 -6.660980 -0.646823 117 117 117 -0.318314 0.936329 -0.148205
17.186800 -6.667010 -0.276546 102 102 102 -0.329465 0.927185 -0.178271
17.256599 -5.094140 -1.581360 43 43 43 -0.024565 0.393229 0.919112
17.264400 2.815420 -1.024650 0 0 0 -0.177399 0.366528 0.913338
18.531401 5.935380 -1.837180 1 1 1 0.006512 0.071440 0.997424
19.060600 10.251300 -2.018660 33 33 33 -0.008720 0.026692 0.999606
17.747499 10.759800 -2.035850 2 2 2 -0.002668 0.003410 0.999991
17.819901 13.992100 -2.170000 17 17 17 0.126138 -0.139393 0.982170
17.153500 17.140699 -2.101330 9 9 9 0.041285 -0.992848 0.112024
17.186399 17.259899 -0.529959 3 3 3 -0.377577 -0.924805 -0.046594
17.153299 17.138800 1.772920 13 13 13 -0.523216 -0.851543 -0.033443
17.219900 17.291599 3.474510 2 2 2 0.324305 -0.940899 -0.097653
17.262899 17.333700 5.710050 2 2 2 -0.217561 -0.973926 0.064313
18.508499 24.533001 2.570390 34 34 34 -0.393414 -0.916046 0.078012
18.871599 25.411100 2.149400 33 33 33 -0.815147 -0.560780 -0.145123
20.344400 -49.305000 2.193570 82 82 82 -0.076848 0.474246 -0.877032
20.633900 -43.089600 5.554080 32 32 32 -0.472903 0.029662 0.880615
19.563400 -40.853699 4.750330 20 20 20 -0.620744 -0.035565 0.783206
19.518101 -39.226501 4.709000 19 19 19 -0.687247 -0.029042 0.725844
19.398800 -35.559101 4.859980 20 20 20 -0.926134 -0.044866 -0.374516
19.393200 -35.234200 4.633360 20 20 20 -0.999277 -0.033373 -0.018188
19.172100 -31.292299 0.944920 31 31 31 -0.947289 0.320282 -0.007951
19.196501 -31.332899 2.239150 25 25 25 -0.916485 0.386557 0.103101
19.546700 -31.816799 4.438620 2 2 2 -0.558847 0.233580 0.795695
20.895399 -32.437099 5.569080 27 27 27 -0.403801 0.911596 0.077059
21.063999 -32.530800 18.611401 33 33 33 -0.453350 0.889637 0.054950
21.072001 -32.453499 19.719801 10 10 10 -0.545222 0.838042 -0.020465
21.104200 -32.326599 23.323999 7 7 7 -0.469366 0.882049 -0.041051
20.885201 -32.528400 25.836800 26 26 26 -0.758542 0.651294 -0.020740
20.871300 -32.421600 29.413601 10 10 10 -0.735932 0.676810 -0.018251
20.855801 -32.397701 29.470400 22 22 22 -0.713082 0.700844 -0.018226
20.839100 -32.287899 33.055099 15 15 15 -0.690132 0.723487 -0.016855
20.989401 -31.988100 34.140900 21 21 21 -0.555657 0.831055 -0.024339
21.076799 -31.951099 36.609200 6 6 6 -0.644671 0.764247 -0.018051
21.031099 -31.969900 37.739399 9 9 9 -0.972768 0.230671 -0.022635
21.088699 -31.796900 40.299599 14 14 14 -0.976296 0.215630 -0.018699
19.256599 -31.076300 0.574822 24 24 24 -0.947001 0.320293 -0.024522
19.161600 -31.275499 1.726640 27 27 27 -0.904785 0.409273 0.117725
19.875299 -31.281300 4.504520 11 11 11 -0.706601 0.682117 0.188233
