ply
format ascii 1.0
element vertex 720
property float x
property float y
property float z
property uchar red
property uchar green
property uchar blue
property float nx
property float ny
property float nz
end_header
-3.922930 -60.895802 33.539398 39 39 39 0.922509 0.384427 -0.034549
-3.909060 -60.697800 35.550598 43 43 43 0.921648 0.385304 -0.045885
-3.963840 -60.369801 37.507401 45 45 45 0.913943 0.403816 -0.040509
-3.951160 -60.194199 39.527000 40 40 40 0.848183 0.526627 -0.057012
-3.936230 -59.988201 41.583900 37 37 37 0.607410 0.794381 -0.003406
-3.923330 -59.808701 43.494999 41 41 41 0.680901 0.729707 0.062468
-4.126820 -59.504902 45.529099 60 60 60 0.453322 0.882043 0.128451
-4.127400 -59.536499 48.096100 55 55 55 0.141677 0.989667 0.022075
-4.127800 -59.555000 49.486698 49 49 49 -0.378157 0.924498 -0.047955
-4.128420 -59.584301 51.961201 50 50 50 -0.165639 0.982255 -0.087971
-3.884150 -58.911900 1.483780 92 92 92 -0.384212 0.923165 0.012183
-4.037340 -58.973999 1.524620 94 94 94 -0.383667 0.923347 0.015171
-3.962400 -58.973999 3.550660 93 93 93 -0.385682 0.922524 0.014071
-3.886940 -58.975300 5.507960 99 99 99 -0.381558 0.924298 0.009277
-3.732690 -58.933899 7.493600 76 76 76 -0.386454 0.922300 0.003949
-3.809960 -58.974400 9.527180 95 95 95 -0.384757 0.922989 0.007345
-2.191800 -43.108002 -0.926743 66 66 66 0.640370 0.113008 0.759707
-2.189880 -43.071499 -0.492231 74 74 74 0.592931 0.184418 0.783851
-2.661300 -41.983601 -0.767023 48 48 48 0.840821 0.356525 0.407319
-2.932770 -41.328701 -0.466382 32 32 32 0.774135 0.275735 0.569812
-3.456330 -29.957701 0.626122 255 255 255 0.597441 0.175362 0.782503
-3.456150 -25.928101 -1.670850 9 9 9 -0.153347 0.341844 -0.927161
-3.579920 -24.506901 -1.034200 255 255 255 0.421746 -0.088931 0.902342
-3.475730 -24.886000 -0.348382 2 2 2 0.808502 0.210696 0.549483
-4.147160 -21.673599 -1.880190 3 3 3 0.749915 0.376888 -0.543675
-3.982970 -21.549801 -0.179199 0 0 0 0.904006 0.360335 0.230071
-4.081600 -20.904301 -1.537340 37 37 37 0.933214 0.352648 -0.068928
-4.107560 -20.900200 -0.497495 12 12 12 0.904740 0.402328 0.139921
-2.158860 -15.453200 -1.871040 39 39 39 0.050309 0.024337 0.998437
-4.008190 -13.513900 -1.882890 12 12 12 -0.549812 0.574707 -0.606151
-4.137150 -12.985100 -0.387293 2 2 2 -0.833725 0.545973 -0.082563
-4.106820 -12.778100 -1.525240 4 4 4 -0.529230 0.846169 0.062564
-4.128410 -12.957600 -0.420687 0 0 0 -0.828515 0.553368 -0.085717
-4.143170 -10.801200 -1.871830 16 16 16 0.024517 0.003618 0.999693
-4.133640 -8.944740 -1.885260 15 15 15 0.036127 0.010578 0.999291
-4.138510 -6.948150 -1.920310 20 20 20 0.038970 0.013001 0.999156
-4.145030 -4.939590 -1.947120 21 21 21 0.035095 0.007680 0.999354
-4.150430 -2.939900 -1.951810 34 34 34 0.078645 -0.194301 0.977784
-4.113500 -2.041180 -0.502261 10 10 10 0.564137 -0.816283 0.124223
-4.155320 -0.936380 -1.967480 22 22 22 0.010616 0.012620 0.999864
-3.989630 0.748313 -0.490633 0 0 0 0.067999 -0.996397 0.050688
-4.133630 1.065060 -1.997960 28 28 28 -0.051178 0.580208 0.812859
-4.035870 1.142910 -0.418545 0 0 0 0.490615 0.868133 0.075113
-3.918400 3.264440 -2.066050 21 21 21 0.081722 -0.043729 0.995695
-4.113030 5.046010 -2.135290 22 22 22 0.056543 0.128373 0.990113
-4.109320 7.065120 -2.234340 157 157 157 0.025437 0.051096 0.998370
-4.109570 9.018890 -2.233920 45 45 45 0.002369 -0.090926 0.995855
-3.976110 11.035300 -2.147680 34 34 34 -0.026588 -0.001547 0.999645
-4.007480 13.651600 -2.174730 13 13 13 -0.355119 -0.104806 0.928927
-3.189990 14.497600 3.432640 32 32 32 -0.242463 -0.758006 -0.605506
-3.707630 14.192800 4.608840 23 23 23 -0.110918 -0.964504 -0.239646
-4.110000 14.121800 5.601180 12 12 12 -0.166482 -0.920123 0.354481
-4.111940 16.331200 -1.064050 33 33 33 0.360706 0.028962 -0.932230
-3.662390 15.354200 2.996060 14 14 14 -0.115543 -0.579585 -0.806679
-3.556540 15.788600 4.521210 30 30 30 0.647521 -0.556136 0.520988
-4.126890 15.016200 6.545400 4 4 4 -0.421798 -0.747151 -0.513665
-4.109580 17.052099 -1.616160 34 34 34 0.368207 -0.920701 -0.129356
-4.107000 17.039700 -0.488187 39 39 39 0.238455 -0.840741 0.486100
-3.977530 18.414801 1.523710 42 42 42 -0.373267 -0.925046 0.070441
-4.127570 17.497700 3.799440 25 25 25 0.231246 -0.894498 -0.382620
-2.446250 17.207199 7.269700 0 0 0 -0.081693 -0.995780 0.041819
-4.067390 18.048500 8.724930 73 73 73 -0.571597 -0.817136 0.074604
-4.024100 18.063000 9.580720 53 53 53 -0.673272 -0.730266 0.115828
-3.913700 18.097300 11.518400 7 7 7 -0.664827 -0.746066 0.037282
-4.127800 18.849501 14.442200 16 16 16 -0.846795 -0.528751 0.057965
-3.669910 17.941500 15.563900 14 14 14 -0.615265 -0.787374 0.038621
-3.420490 17.724800 17.704700 0 0 0 -0.338705 -0.940883 -0.004328
-3.594840 18.141001 19.858200 14 14 14 -0.543619 -0.837404 0.056859
-3.738980 18.860100 23.373800 29 29 29 -0.781967 -0.623249 0.009363
-3.188380 17.952101 25.177099 2 2 2 -0.386834 -0.917831 -0.089145
-3.165370 17.959900 26.328800 19 19 19 -0.376752 -0.897995 0.227293
-3.475000 18.733700 28.861200 29 29 29 -0.723442 -0.689671 -0.031377
-3.408920 18.783199 30.582399 40 40 40 -0.784470 -0.620052 0.011888
-3.280690 18.598200 32.474400 4 4 4 -0.658148 -0.752861 0.006443
-2.920500 17.993999 33.576698 15 15 15 -0.407039 -0.912937 0.029401
-2.913750 18.246300 36.000500 15 15 15 -0.593515 -0.793507 0.134487
-3.176580 18.980200 37.782902 50 50 50 -0.799912 -0.599870 0.017218
-2.937480 18.532801 39.674900 13 13 13 -0.708310 -0.705739 0.015172
-2.662900 18.254700 43.221001 12 12 12 -0.584457 -0.809076 0.061696
-2.666860 18.444401 45.029701 6 6 6 -0.704440 -0.706912 0.063562
-2.762080 18.763201 45.574100 1 1 1 -0.801838 -0.596744 0.030858
-2.668440 18.952299 49.241001 5 5 5 -0.784607 -0.618480 0.043298
-2.159010 18.115101 50.429401 15 15 15 -0.487068 -0.873295 0.010988
-2.171750 18.218901 51.526001 22 22 22 -0.530359 -0.847626 0.015792
-2.166300 18.360500 54.018398 15 15 15 -0.553128 -0.832864 -0.019658
-2.314730 18.801201 55.788101 54 54 54 -0.744060 -0.667699 0.023522
-3.229760 19.851299 3.166550 20 20 20 -0.617051 -0.364722 0.697299
-2.943480 19.985201 3.522800 20 20 20 0.953386 0.145470 -0.264375
-2.660690 20.186399 6.912470 93 93 93 -0.004903 -0.137280 -0.990520
-2.255100 19.113600 10.161800 26 26 26 -0.144806 0.013999 -0.989361
-4.073130 19.050200 18.074499 17 17 17 -0.788386 -0.611132 0.070456
-4.017340 19.372801 21.655500 16 16 16 -0.804868 -0.593446 0.002918
-3.720400 19.255800 26.931299 2 2 2 -0.813019 -0.581749 0.023830
-3.663690 19.227800 28.847200 27 27 27 -0.790295 -0.612364 -0.021070
-3.880690 19.948900 30.585501 23 23 23 -0.872919 -0.487164 0.026140
-3.759530 20.114599 36.117500 3 3 3 -0.846254 -0.529325 0.060571
-3.964210 20.936800 37.773499 20 20 20 -0.880657 -0.468526 0.070188
-3.573450 20.086399 39.676102 29 29 29 -0.872115 -0.486807 0.049341
-3.661010 20.891500 44.999500 57 57 57 -0.892381 -0.444131 0.080022
-2.751750 19.030300 46.792198 6 6 6 -0.786832 -0.617148 0.004915
-2.916480 19.472799 48.600101 52 52 52 -0.834079 -0.550354 0.037706
-3.035030 19.918200 49.807301 8 8 8 -0.863764 -0.501367 0.050432
-2.694080 19.296700 52.193401 44 44 44 -0.807451 -0.589869 0.008866
-2.705590 19.551800 54.062401 39 39 39 -0.786982 -0.607348 0.108569
-3.254490 20.995899 55.816799 38 38 38 -0.866143 -0.495256 0.067219
-2.717850 20.209999 59.362701 24 24 24 -0.864178 -0.501545 0.040616
-2.411640 19.774500 62.981499 46 46 46 -0.783108 -0.620764 0.037334
-2.512860 20.190500 64.193001 10 10 10 -0.824941 -0.560724 0.071134
-3.759920 22.764700 2.763100 27 27 27 -0.877855 -0.244274 0.411948
-3.239630 22.595501 3.783710 21 21 21 0.593731 0.084439 -0.800221
-3.951660 23.005699 7.129840 144 144 144 0.105774 -0.994132 -0.022650
-4.124600 21.057800 36.023800 23 23 23 -0.867783 -0.495188 -0.041733
-3.763790 21.145700 45.498001 2 2 2 -0.882241 -0.467833 0.052752
-3.813190 22.388000 55.818802 51 51 51 -0.736011 -0.673332 0.070085
-3.638600 22.364401 59.402401 33 33 33 -0.790933 -0.602966 0.104197
-3.769080 22.803101 60.707100 5 5 5 -0.767641 -0.631535 0.109046
-3.026030 21.647301 66.595497 21 21 21 -0.855756 -0.513334 0.064581
-4.130670 23.351400 2.873860 30 30 30 0.344546 -0.337284 -0.876087
-4.146260 23.261600 3.778690 52 52 52 -0.403542 -0.415301 -0.815279
-3.924930 23.021500 7.124400 149 149 149 0.099766 -0.994837 -0.018631
-4.121550 23.983000 68.583298 2 2 2 -0.541302 -0.839994 0.037461
-4.118790 23.964001 69.636803 5 5 5 -0.577901 -0.814763 0.046807
-3.999660 23.997900 73.223900 12 12 12 -0.886773 -0.452668 0.093410
-2.359410 61.743500 24.242701 28 28 28 0.712851 -0.700728 -0.028691
-2.283090 61.722000 26.937700 15 15 15 0.706352 -0.704486 -0.069039
-1.423880 -79.193802 21.092600 26 26 26 0.920977 0.387368 -0.041799
-1.227970 -79.351898 23.764299 39 39 39 0.920894 0.387781 -0.039757
-1.222260 -79.065102 26.408501 42 42 42 0.920236 0.389315 -0.040008
-1.317940 -78.861298 26.426399 51 51 51 0.920538 0.388707 -0.038935
-1.156960 -75.685898 49.693901 32 32 32 0.258974 0.376364 -0.889541
-2.142290 -73.628998 49.602402 63 63 63 0.527803 0.847510 -0.056136
-1.954320 -73.632004 53.529499 51 51 51 0.495403 0.868344 -0.023555
-2.128980 -64.602402 39.101299 36 36 36 0.922728 0.383422 -0.039504
-2.126990 -64.547699 39.515499 42 42 42 0.919123 0.391762 -0.041656
-2.043990 -64.547897 41.569302 35 35 35 0.923376 0.381747 -0.040578
-1.959690 -64.511597 43.547298 35 35 35 0.919210 0.391687 -0.040429
-1.952270 -64.307800 45.559601 33 33 33 0.920882 0.387619 -0.041566
-1.945170 -64.120201 47.511902 33 33 33 0.920810 0.387536 -0.043874
-1.930830 -63.729500 51.446400 31 31 31 0.922290 0.384167 -0.042381
-2.005490 -63.531700 51.648899 28 28 28 0.922278 0.384166 -0.042670
-2.146970 -62.431400 14.203600 27 27 27 -0.046526 0.672176 0.738928
-2.055910 -62.634899 51.949299 3 3 3 0.880687 0.462737 -0.101318
-2.149620 -58.188301 1.360870 98 98 98 -0.387523 0.921821 0.008498
-2.149590 -58.187901 1.507300 102 102 102 -0.386653 0.922151 0.011671
-2.150540 -58.235500 4.368780 106 106 106 -0.380053 0.924797 0.017628
-2.150600 -58.252998 5.550660 110 110 110 -0.383695 0.923408 0.009777
-2.149440 -58.244400 8.371260 33 33 33 -0.406540 0.913617 0.005464
-2.150460 -58.282600 9.499990 105 105 105 -0.384375 0.923137 0.008622
-1.555950 -58.037498 11.487200 4 4 4 -0.385486 0.922675 -0.008456
-1.993670 -43.555401 -0.607247 70 70 70 0.590640 0.178149 0.787024
-1.943410 -43.662201 -0.486472 76 76 76 0.575705 0.208218 0.790702
-1.191180 -31.172899 -1.121030 255 255 255 0.596446 0.006286 0.802629
-0.910355 -30.946899 -1.322040 2 2 2 0.602219 0.118932 0.789422
-1.493670 -27.369400 -1.785460 4 4 4 0.053305 -0.067445 0.996298
-1.163690 -26.133400 -1.872440 0 0 0 0.246973 0.064133 0.966898
-2.102430 -23.037600 -1.858350 0 0 0 0.435681 0.113361 0.892934
-2.088160 -22.881201 -1.874810 0 0 0 0.402342 0.138567 0.904942
-2.069710 -20.671200 -1.870720 2 2 2 0.280846 -0.022001 0.959501
-1.910230 -16.019199 -1.875420 39 39 39 0.050246 0.021588 0.998504
-1.436420 -14.910100 -1.925720 9 9 9 0.049499 0.027055 0.998408
-1.994520 -12.651500 -1.917750 14 14 14 0.037037 0.022179 0.999068
-1.908670 -10.941000 -1.965770 18 18 18 0.065607 0.017283 0.997696
-2.154340 -8.974030 -1.971350 16 16 16 0.031991 0.006111 0.999469
-2.154240 -6.940370 -1.983650 21 21 21 0.028417 -0.007293 0.999570
-2.155280 -4.938620 -1.980260 29 29 29 0.033870 0.000744 0.999426
-0.297752 -3.219920 -0.511962 5 5 5 0.989911 -0.092229 0.107568
-2.155140 -2.946030 -1.991590 25 25 25 -0.010358 0.053687 0.998504
-0.275557 -2.980060 -0.512464 6 6 6 0.990570 -0.084583 0.107782
-2.123710 -0.945563 -2.015770 33 33 33 0.021592 0.009636 0.999720
-2.107900 1.063500 -2.027160 30 30 30 -0.034543 -0.405568 0.913412
-2.111200 3.063330 -2.072750 13 13 13 0.003116 0.019744 0.999800
-2.113030 5.053220 -2.139680 24 24 24 0.000899 0.052370 0.998627
-2.110590 7.059910 -2.278180 21 21 21 0.002702 0.014256 0.999895
-2.137740 9.016830 -2.166570 62 62 62 -0.046612 -0.054855 0.997406
-2.126340 11.051200 -2.088340 43 43 43 -0.020221 -0.093606 0.995404
-2.066720 13.030100 -1.504270 23 23 23 -0.351133 -0.243170 0.904198
-1.916350 14.259500 3.177860 34 34 34 -0.034371 -0.969104 0.244245
-1.765900 14.214400 4.632630 24 24 24 0.250369 -0.965116 0.076593
-2.070380 13.689600 5.581740 30 30 30 -0.573159 0.081383 -0.815393
-0.917656 14.737000 10.779500 12 12 12 0.023582 -0.052567 -0.998339
-0.932032 14.952600 12.481900 13 13 13 -0.875459 -0.481756 0.038506
-0.702376 14.459300 13.530600 17 17 17 -0.781462 -0.623053 0.033487
-0.681554 14.750100 16.067400 17 17 17 -0.815490 -0.576748 0.048340
-0.668169 14.846300 18.022499 1 1 1 -0.854085 -0.518949 0.035075
-0.433705 14.507600 19.580000 7 7 7 -0.744095 -0.668063 0.003689
-0.462271 14.803500 21.532499 22 22 22 -0.807093 -0.587729 0.056358
-0.414502 15.010600 25.153799 15 15 15 -0.831923 -0.551778 0.058692
-0.164418 14.543400 26.259800 25 25 25 -0.692291 -0.721045 0.028750
-0.167683 14.740600 28.792801 2 2 2 -0.798943 -0.594783 0.089015
-0.171130 14.988100 30.493099 34 34 34 -0.877155 -0.479856 0.018366
-1.909270 15.071400 -1.020260 26 26 26 -0.415099 -0.176122 0.892566
-2.064460 16.977900 -0.479586 18 18 18 -0.421134 -0.555863 0.716703
-1.958430 16.992500 1.518190 53 53 53 0.125307 -0.991994 0.015706
-1.734980 15.744100 4.223870 24 24 24 0.934712 -0.073793 -0.347662
-2.008710 15.378600 6.552470 16 16 16 0.449493 -0.490224 0.746751
-1.669860 16.660299 10.748800 6 6 6 -0.357605 -0.352087 -0.864959
-1.675390 16.704500 12.525700 7 7 7 -0.820917 -0.570671 -0.020764
-1.486190 16.477800 14.368900 19 19 19 -0.780385 -0.624910 0.022076
-1.406560 16.507601 16.079300 9 9 9 -0.820026 -0.568396 0.066958
-1.422800 16.686899 17.970699 22 22 22 -0.847137 -0.530977 0.020527
-1.421120 16.908800 19.680401 13 13 13 -0.788556 -0.611420 0.065919
-1.409310 17.014200 21.582399 16 16 16 -0.516917 -0.851274 0.090162
-1.238420 16.996700 25.171600 27 27 27 -0.387002 -0.911230 0.141031
-1.172240 16.965200 26.924299 10 10 10 -0.744517 -0.659510 0.103640
-0.918280 16.601500 28.773399 31 31 31 -0.849027 -0.527321 -0.032971
-0.906261 16.753700 30.496000 38 38 38 -0.770190 -0.622385 0.139440
-0.665604 16.508600 32.330502 4 4 4 -0.810529 -0.584936 0.029869
-0.664713 16.463400 34.123501 4 4 4 -0.826806 -0.557603 0.073965
-0.676887 16.750000 35.975399 27 27 27 -0.697830 -0.716050 0.017484
-0.665974 16.987400 37.681599 40 40 40 -0.699171 -0.708943 0.092512
-0.420683 16.527399 39.567101 27 27 27 -0.761916 -0.646931 0.031070
-0.408720 16.852501 43.177799 22 22 22 -0.604165 -0.796859 0.000176
-0.172279 16.421700 44.924301 15 15 15 -0.828074 -0.555197 0.077785
-0.175639 16.698601 46.766800 32 32 32 -0.743570 -0.668541 -0.012504
-0.159001 17.011000 50.375198 29 29 29 -0.656015 -0.751285 -0.072215
-2.092630 17.035500 -0.670786 7 7 7 -0.448366 -0.428601 0.784391
-2.094370 17.049500 -0.477358 8 8 8 -0.534224 -0.443017 0.719959
-2.008900 17.055000 1.534010 8 8 8 -0.272119 -0.962040 0.020746
-1.959440 17.779699 5.083710 9 9 9 -0.645281 -0.749624 -0.147227
-2.124010 17.265400 7.440990 73 73 73 -0.098062 -0.992104 -0.078183
-2.124040 17.265400 7.518680 64 64 64 -0.109802 -0.992502 -0.053698
-2.081500 17.262501 9.646420 24 24 24 -0.094622 -0.994086 0.053287
-1.972210 17.263399 11.517600 40 40 40 0.015025 -0.997963 0.061995
-2.039700 17.263901 13.995500 0 0 0 -0.160039 -0.979384 -0.123267
-2.106020 17.255600 15.525900 35 35 35 0.072100 -0.993835 -0.084221
-2.107820 17.258301 18.010900 37 37 37 -0.135175 -0.990550 0.023206
-2.091530 17.287399 21.468100 0 0 0 -0.358919 -0.933224 -0.016433
-2.132030 17.263800 21.583300 27 27 27 -0.357294 -0.933904 0.012783
-1.957590 17.261801 25.231300 21 21 21 -0.340291 -0.932117 0.123936
-2.113420 17.265699 26.359501 12 12 12 -0.138364 -0.981274 -0.134003
-2.026400 17.265600 28.882601 4 4 4 -0.180504 -0.978178 0.102891
-1.959350 17.255199 29.970100 3 3 3 -0.336819 -0.938005 -0.081854
-1.914700 17.435400 32.316799 2 2 2 -0.482794 -0.874918 -0.037783
-2.112950 17.412201 33.526299 36 36 36 -0.175197 -0.962743 -0.205989
-2.056590 17.493700 35.981701 7 7 7 -0.436988 -0.894917 0.090357
-0.667829 17.037100 37.668499 20 20 20 -0.704117 -0.702897 0.100768
-1.990740 17.490999 39.581100 12 12 12 -0.385798 -0.908178 0.162397
-1.969750 17.488501 43.283001 3 3 3 -0.281150 -0.934824 0.216930
-1.929310 17.514999 44.367001 10 10 10 -0.463429 -0.877544 -0.123087
-1.906630 17.710199 46.821602 12 12 12 -0.384994 -0.919827 0.075488
-1.957240 17.755501 47.934200 33 33 33 -0.461185 -0.877255 -0.133164
-1.931050 17.709801 50.464298 2 2 2 -0.402318 -0.898948 0.173297
-1.914200 17.760599 51.575199 14 14 14 -0.320167 -0.947240 -0.015176
-1.911640 17.943899 54.017502 11 11 11 -0.393800 -0.917558 0.054854
-1.969900 18.256901 57.652199 25 25 25 -0.528547 -0.848267 -0.032891
-1.480000 17.910200 61.226501 12 12 12 -0.380905 -0.923924 0.035714
-1.698190 18.050301 62.367901 9 9 9 -0.358999 -0.926841 0.109930
-1.552750 18.214899 65.446503 3 3 3 -0.474858 -0.879673 -0.026181
-1.416780 17.941601 65.955002 20 20 20 -0.336569 -0.940794 0.040356
-1.441440 18.245501 68.423203 19 19 19 -0.448938 -0.891928 0.054028
-1.218680 18.008101 69.518700 16 16 16 -0.428918 -0.902150 0.046413
-1.251970 18.148701 72.015602 15 15 15 -0.449181 -0.892346 0.044224
-1.209090 18.181200 73.877800 8 8 8 -0.490806 -0.871062 -0.018996
-0.946650 17.952299 76.751801 11 11 11 -0.365238 -0.930638 0.022658
-1.001110 18.115000 77.655800 2 2 2 -0.418171 -0.908024 0.025020
-0.629327 19.024000 2.058360 11 11 11 0.388533 -0.786634 0.479843
-0.681119 19.072300 6.981190 64 64 64 0.167148 -0.058934 -0.984169
-0.694633 19.419201 9.442780 19 19 19 0.908793 0.154408 -0.387626
-0.685198 19.840599 10.295300 11 11 11 0.612633 0.093837 -0.784777
-1.836990 19.498800 72.789001 20 20 20 -0.738291 -0.672279 0.054474
-0.697539 21.027599 6.971400 37 37 37 -0.093400 -0.017963 -0.995467
-0.675675 21.135700 10.683900 23 23 23 0.109466 -0.040510 -0.993165
-1.212680 24.551500 2.788750 26 26 26 0.445037 -0.891420 -0.085517
-1.184100 24.583700 3.508190 25 25 25 0.472401 -0.881112 -0.021898
-1.045210 24.200899 6.826150 112 112 112 -0.819538 -0.561137 -0.116114
-0.684186 25.545799 2.952870 5 5 5 -0.022387 -0.179779 -0.983452
-1.112570 25.764900 6.884050 201 201 201 0.660488 -0.704809 0.258843
-2.135580 61.948898 24.347000 24 24 24 0.695112 -0.718667 -0.018348
-2.134420 61.877899 26.959400 11 11 11 0.702495 -0.707900 -0.073337
-1.292070 62.671600 27.512800 18 18 18 0.690958 -0.720887 -0.053840
-0.981579 63.065201 26.470301 19 19 19 0.476057 -0.843077 -0.250180
-0.902294 63.037399 27.559500 18 18 18 0.522226 -0.852127 0.034047
1.336950 -85.726303 20.954000 30 30 30 0.920873 0.387805 -0.040004
1.445320 -85.725304 23.332399 37 37 37 0.920681 0.388261 -0.039995
1.559170 -85.978996 23.492001 31 31 31 0.920682 0.388257 -0.040006
0.250035 -83.118401 21.246099 38 38 38 0.920915 0.387697 -0.040077
0.047284 -82.661400 21.071100 30 30 30 0.921006 0.387463 -0.040265
0.248061 -82.856400 23.746300 31 31 31 0.920932 0.387676 -0.039887
1.314520 -78.824600 49.635101 34 34 34 0.186835 0.222492 -0.956865
0.306206 -75.363098 49.924099 53 53 53 0.663621 0.746878 -0.042197
0.303037 -75.161003 53.824299 55 55 55 0.658225 0.752373 -0.025982
0.114493 -74.982201 54.623699 58 58 58 0.632870 0.772499 -0.052162
-0.103032 -57.016499 -0.554377 42 42 42 -0.360372 0.909452 0.207436
0.037875 -57.257000 0.632224 103 103 103 -0.385754 0.913622 0.128406
-0.104293 -57.336700 1.532190 105 105 105 -0.382037 0.923943 0.019410
-0.100658 -57.372101 3.489870 100 100 100 -0.376924 0.926075 0.017731
-0.100008 -57.399700 5.523870 109 109 109 -0.379401 0.925221 0.004542
0.035521 -57.372601 7.814080 95 95 95 -0.373347 0.927692 0.000620
0.034793 -57.374298 9.730550 63 63 63 -0.377112 0.926114 0.009960
-0.030368 -56.975899 -0.571882 37 37 37 -0.353065 0.911334 0.211697
0.038031 -56.965500 -0.514509 79 79 79 -0.354541 0.911027 0.210547
0.749493 -56.983501 1.531840 105 105 105 -0.446151 0.894769 0.018394
0.892308 -56.960400 3.505510 112 112 112 -0.387634 0.921635 0.018144
0.964152 -56.956902 5.498700 100 100 100 -0.389683 0.920927 0.006361
0.963360 -56.969799 8.183630 59 59 59 -0.389455 0.921005 0.008611
1.035220 -56.963299 9.485800 94 94 94 -0.167482 0.982231 0.084687
1.005690 -37.236301 -0.666485 57 57 57 -0.126102 0.844369 0.520710
1.324600 -36.941799 -1.016920 117 117 117 -0.073791 0.947980 0.309658
0.828691 -33.783001 -1.901720 1 1 1 0.567659 0.245436 0.785828
0.059378 -31.563299 -1.682750 7 7 7 0.371075 0.158896 0.914907
0.689253 -29.646400 -1.883850 0 0 0 0.287974 0.103342 0.952046
0.153541 -27.176399 -1.885960 0 0 0 0.174756 0.085123 0.980925
0.116742 -26.592199 -1.902500 1 1 1 0.139027 0.026714 0.989928
0.416147 -24.498899 -1.890750 1 1 1 0.115908 0.020176 0.993055
-0.120660 -14.897200 -1.973330 8 8 8 0.036937 0.048758 0.998127
-0.155844 -11.889200 -2.002170 14 14 14 0.033613 0.017841 0.999276
-0.089000 -10.962800 -2.016570 16 16 16 0.027555 0.011914 0.999549
-0.106284 -8.942120 -2.017140 18 18 18 0.042500 0.010030 0.999046
-0.153108 -6.964550 -2.036550 24 24 24 0.033709 0.005050 0.999419
-0.115632 -4.972430 -2.045910 24 24 24 0.081720 -0.008538 0.996619
-0.065697 -2.978220 -2.025660 31 31 31 0.162704 0.034592 0.986068
-0.115956 -2.283580 -0.424299 0 0 0 0.993768 -0.014063 -0.110576
0.414963 1.014710 -1.866240 1 1 1 -0.103485 0.278376 0.954881
-0.106581 1.113330 -2.027750 19 19 19 -0.032087 0.033973 0.998908
-0.108288 3.059840 -2.077760 26 26 26 -0.005208 0.024582 0.999684
0.040362 5.265550 -2.166220 22 22 22 0.008843 0.053502 0.998529
0.591621 6.377670 6.780030 1 1 1 -0.997786 -0.023330 0.062283
0.735552 6.356400 7.519580 1 1 1 -0.995098 -0.082365 0.054738
-0.107313 7.022340 -2.266290 24 24 24 -0.003527 -0.010957 0.999934
0.079190 8.706570 1.281560 10 10 10 -0.815365 -0.558825 0.151309
0.090307 8.706700 1.576500 6 6 6 -0.922533 -0.352945 0.156085
0.341036 8.148810 3.533860 0 0 0 0.998513 -0.039493 -0.037580
0.589044 7.476740 7.222020 1 1 1 -0.997889 -0.043614 0.048108
-0.115830 9.045920 -2.105210 46 46 46 0.066054 0.021077 0.997593
0.084100 9.205300 2.292490 0 0 0 -0.959650 -0.279301 0.032587
0.595561 9.597420 4.796770 0 0 0 0.990054 -0.125382 -0.063808
-0.155271 11.032500 -2.029170 40 40 40 -0.042306 -0.026556 0.998752
0.267169 11.049500 1.329640 0 0 0 -0.992702 -0.000681 0.120592
0.742057 12.205300 5.585650 1 1 1 -0.380246 -0.465914 -0.798960
-0.020430 13.035400 -1.467220 40 40 40 0.066529 -0.448399 0.891354
-0.006701 13.979200 2.566070 33 33 33 -0.450267 -0.109556 -0.886147
-0.007744 14.637000 4.581590 22 22 22 0.300351 -0.886017 0.353219
0.006078 13.704800 10.680500 23 23 23 -0.364283 -0.763397 0.533407
0.043511 13.692000 11.519500 36 36 36 -0.384415 -0.921486 -0.055572
0.079634 13.746700 14.310500 22 22 22 -0.461260 -0.884979 0.063654
0.080386 13.760600 15.487700 6 6 6 -0.459311 -0.886811 0.050988
0.082688 13.938500 17.870300 2 2 2 -0.522563 -0.852589 0.004414
0.085257 14.058700 21.477699 4 4 4 -0.397847 -0.916028 0.051090
0.084988 14.007000 21.514999 20 20 20 -0.322807 -0.943480 0.075105
0.087659 14.154100 25.120800 22 22 22 -0.572416 -0.818669 0.046046
0.088607 14.222100 26.233500 32 32 32 -0.631933 -0.773640 0.046280
0.090668 14.386000 28.733900 22 22 22 -0.662934 -0.743871 0.084700
0.091704 14.472400 29.834101 34 34 34 -0.756240 -0.653016 0.040873
-0.004684 14.854900 32.333900 26 26 26 -0.785625 -0.616009 0.057668
0.331617 14.505100 35.934200 21 21 21 -0.687588 -0.722150 0.075643
0.228516 14.904900 37.662899 50 50 50 -0.828993 -0.559088 0.013855
0.322444 14.885100 39.529999 33 33 33 -0.787046 -0.613235 0.067093
0.578704 14.681800 43.115002 20 20 20 -0.693299 -0.719502 0.040670
0.585602 14.840500 44.868500 14 14 14 -0.829151 -0.558993 -0.005967
0.592559 15.000800 46.725498 31 31 31 -0.833627 -0.550187 0.048587
0.837976 14.652900 47.826401 45 45 45 -0.799482 -0.599783 0.033006
0.762900 14.964100 50.354500 31 31 31 -0.795250 -0.598743 0.095311
0.839345 14.982500 52.069500 54 54 54 -0.840451 -0.541548 -0.019171
1.082200 14.667200 53.927502 16 16 16 -0.663427 -0.746529 0.050588
1.090160 14.764300 55.941101 0 0 0 -0.813017 -0.582141 -0.010683
1.087240 14.976100 57.548500 24 24 24 -0.805373 -0.591184 0.043308
1.339070 14.796700 61.116299 15 15 15 -0.721857 -0.691577 -0.025391
1.330300 14.905300 61.819901 9 9 9 -0.798953 -0.598068 0.063150
1.556770 14.712000 64.701202 13 13 13 -0.773480 -0.613918 0.157586
1.589970 14.667600 65.834702 33 33 33 -0.747095 -0.661993 -0.060123
1.775130 14.644800 67.584702 4 4 4 -0.746459 -0.661983 0.067657
1.730140 14.730700 70.200500 1 1 1 -0.803337 -0.593375 -0.050549
1.836430 14.820600 73.025497 33 33 33 -0.702325 -0.710834 -0.038145
0.117074 15.101800 -0.660109 1 1 1 0.038959 -0.153185 0.987429
1.589730 16.778601 -0.467885 32 32 32 -0.385732 -0.170220 0.906772
-0.006994 15.024300 2.176710 31 31 31 0.546429 -0.753421 -0.365749
0.434840 15.569400 3.541730 16 16 16 0.117409 -0.764817 -0.633459
-0.026517 15.137600 5.720880 25 25 25 0.258546 -0.836373 0.483357
-0.123429 15.091000 10.778100 42 42 42 -0.058909 0.081979 -0.994892
1.296970 15.232700 15.566500 1 1 1 0.094301 -0.004944 -0.995531
-0.153221 15.108800 30.428801 5 5 5 -0.880389 -0.471112 0.054495
-0.059239 15.059900 32.319302 6 6 6 -0.817260 -0.574226 0.048488
-0.023702 15.026100 34.078499 47 47 47 -0.852740 -0.522064 0.016836
-0.024614 15.161400 35.957901 18 18 18 -0.865134 -0.491884 0.097951
-0.025593 15.440500 37.672298 50 50 50 -0.893170 -0.448607 0.031594
0.082586 15.467200 39.532299 35 35 35 -0.878107 -0.476857 0.039192
0.085347 15.719600 43.185699 7 7 7 -0.882310 -0.467563 0.053977
0.087117 15.953700 44.877602 38 38 38 -0.901999 -0.429802 0.040844
-0.091084 16.496500 46.768200 34 34 34 -0.812817 -0.582112 0.021772
0.090441 16.351400 48.489399 48 48 48 -0.852040 -0.520000 0.060236
-0.032277 16.758301 50.364101 33 33 33 -0.708318 -0.705781 0.012628
0.277157 16.390600 52.075401 43 43 43 -0.845035 -0.521186 0.119500
0.339478 16.403299 53.934200 33 33 33 -0.812610 -0.581940 0.031798
0.341914 16.483601 55.701599 26 26 26 -0.863714 -0.500233 0.061360
0.329525 16.889500 57.529301 15 15 15 -0.664784 -0.746928 -0.012696
0.434473 16.757799 59.930801 6 6 6 -0.764444 -0.641749 0.061513
0.827023 16.143499 62.880501 53 53 53 -0.890925 -0.450980 0.053577
1.092910 15.563400 63.544201 8 8 8 -0.904879 -0.424401 0.032832
0.827863 16.554600 66.472900 56 56 56 -0.837098 -0.535962 0.109597
0.961729 16.333900 67.667999 12 12 12 -0.901641 -0.431796 0.024406
1.084300 16.306299 70.054398 7 7 7 -0.888418 -0.455278 0.058609
1.081700 16.577900 71.949699 21 21 21 -0.850623 -0.524506 -0.036522
1.072950 16.756701 74.314201 12 12 12 -0.852538 -0.508154 0.122306
1.084780 16.936600 75.563904 19 19 19 -0.835826 -0.546119 -0.056113
1.454580 16.243601 78.000000 17 17 17 -0.902035 -0.428901 0.048743
1.338090 16.852100 80.878403 49 49 49 0.833824 0.532968 -0.143813
-0.096031 18.004499 -0.667406 0 0 0 0.341502 -0.522151 0.781495
-0.146735 18.712500 -0.470607 38 38 38 0.509230 -0.857444 0.073989
-0.124015 18.702999 1.525130 40 40 40 0.340769 -0.934812 0.100018
0.576408 18.877899 6.780610 70 70 70 -0.037320 -0.121386 -0.991903
0.634182 18.457800 7.581400 31 31 31 0.238422 -0.906802 -0.347655
-0.117155 17.019300 10.693300 112 112 112 0.024044 0.013523 -0.999619
-0.116573 17.034901 50.351101 24 24 24 -0.646508 -0.758732 -0.079710
-0.096744 17.256599 52.020500 3 3 3 0.640867 0.725589 -0.250619
-0.142200 17.418900 53.974899 31 31 31 -0.431300 -0.888459 -0.156913
-0.035037 17.300699 55.705101 50 50 50 -0.669262 -0.728169 0.147846
-0.036052 17.487200 57.578999 26 26 26 -0.424546 -0.859217 -0.285492
-0.147444 17.712799 61.127998 5 5 5 -0.395227 -0.901941 -0.174062
-0.124652 17.487400 62.320400 12 12 12 -0.388943 -0.913089 0.122439
0.146976 17.621799 64.761101 10 10 10 -0.521277 -0.834137 -0.180238
-0.148305 17.497900 65.923698 15 15 15 -0.544533 -0.834691 0.082307
0.126905 17.614000 68.716797 2 2 2 -0.542225 -0.836533 -0.078769
0.521292 17.469400 70.127098 5 5 5 -0.562229 -0.817322 0.126027
-0.153045 17.724001 73.006302 3 3 3 -0.644149 -0.764632 0.020222
0.706131 17.645800 74.393097 15 15 15 -0.627123 -0.777593 0.045457
-0.132142 17.628401 76.716400 19 19 19 -0.517241 -0.851500 0.086079
1.020280 17.277901 77.955597 15 15 15 0.610602 0.761513 -0.217402
0.977595 17.689199 79.912598 14 14 14 0.877148 0.452388 -0.161113
1.042830 19.212299 -0.167130 30 30 30 0.410138 -0.912007 0.005462
-0.128291 19.327200 2.040940 18 18 18 0.464189 -0.690050 0.555301
0.480644 19.804100 6.881860 193 193 193 -0.097909 0.025836 -0.994860
0.682208 19.148001 8.874060 10 10 10 0.370709 -0.928696 -0.009904
-0.106396 19.031700 10.814300 24 24 24 -0.160656 -0.007135 -0.986985
-0.062752 21.277300 7.027370 128 128 128 -0.117846 0.068816 -0.990645
-0.143402 21.049801 10.674400 24 24 24 0.006897 -0.180560 -0.983540
0.327697 23.048599 10.600600 18 18 18 -0.021305 -0.088918 -0.995811
-0.134817 25.052799 2.669410 24 24 24 0.428927 -0.902271 -0.043909
-0.076470 26.208300 6.829620 157 157 157 0.183890 -0.918406 0.350306
0.997326 29.015100 12.821400 6 6 6 -0.171047 0.372548 -0.912114
0.987820 29.835501 12.372600 4 4 4 -0.236383 0.229509 -0.944165
0.342336 62.922100 26.987200 19 19 19 0.011475 -0.999928 -0.003632
-0.112033 63.165501 26.817699 14 14 14 0.281455 -0.959340 -0.021211
3.406970 -79.052902 49.818100 42 42 42 0.858938 0.510389 -0.041589
3.712930 -79.256897 53.682701 35 35 35 0.869232 0.494232 -0.013090
2.061110 -77.144402 49.687599 48 48 48 0.773625 0.632778 -0.033103
3.175990 -78.403099 53.413502 38 38 38 0.831324 0.555025 -0.029105
2.248380 -77.122704 53.673500 43 43 43 0.767888 0.640392 -0.015715
1.862330 -76.906799 49.740002 52 52 52 0.757421 0.652095 -0.032947
1.953810 -76.764900 53.817101 48 48 48 0.752238 0.658732 -0.014495
3.843940 -57.137402 2.304710 34 34 34 0.920988 0.386344 -0.050202
1.934950 -58.147900 9.925490 53 53 53 0.779763 0.525326 -0.340591
1.948150 -56.317001 0.871852 12 12 12 -0.428901 0.903340 0.004638
1.953710 -56.495800 2.577480 93 93 93 -0.374947 0.910548 0.174119
1.883700 -56.543701 3.524180 108 108 108 -0.389744 0.920753 0.017714
1.883980 -56.572399 5.530240 121 121 121 -0.385838 0.922552 0.005080
1.883530 -56.612598 10.395500 87 87 87 -0.424999 0.848436 -0.315487
3.567240 -39.043701 -1.355950 21 21 21 0.917881 0.394502 0.043158
2.585610 -37.031200 -0.719012 39 39 39 0.609356 0.786305 -0.102027
2.074510 -37.066101 -0.316641 11 11 11 0.138757 0.960830 0.239902
1.872200 -36.766899 -1.472430 2 2 2 0.198073 0.957995 0.207396
2.009570 -33.641102 -1.885920 0 0 0 0.274476 0.205105 0.939465
2.010350 -32.303101 -1.910140 1 1 1 0.253170 0.081905 0.963948
2.516060 -23.599001 -1.955920 1 1 1 -0.151105 0.729756 -0.666801
2.404100 -22.826900 -1.970090 1 1 1 0.014068 0.538898 -0.842253
2.848300 -17.476900 -2.100570 5 5 5 -0.192869 0.023135 0.980952
3.814040 -15.539800 -2.166340 9 9 9 -0.466567 -0.054356 0.882814
3.422600 -16.234900 6.877990 0 0 0 -0.384602 0.922773 0.023898
3.472880 -16.171700 7.504200 1 1 1 -0.351693 0.935711 0.027530
1.964320 -14.178200 -2.070850 10 10 10 0.028815 0.015427 0.999466
1.880880 -11.730500 -2.072510 16 16 16 0.040360 0.008848 0.999146
1.868890 -10.946000 -2.079840 16 16 16 0.039452 0.003665 0.999215
1.860090 -8.978600 -2.098250 21 21 21 0.024270 0.010777 0.999647
1.848920 -6.960440 -2.068810 138 138 138 0.000889 -0.019909 0.999801
1.854240 -4.981800 -2.028850 24 24 24 0.002031 -0.008971 0.999958
1.847970 -2.980740 -2.028210 26 26 26 0.000164 -0.004634 0.999989
1.847680 -0.980432 -2.016450 29 29 29 -0.085489 -0.402522 0.911410
1.996180 -0.078892 -0.290052 6 6 6 -0.913877 0.348927 -0.207551
1.889420 1.146160 -2.017260 27 27 27 -0.018495 0.513580 0.857842
2.253270 1.728270 -0.482713 18 18 18 0.561438 -0.824040 -0.075795
1.892520 3.023160 -2.069850 28 28 28 -0.017526 0.017490 0.999693
3.796580 3.020090 -0.467104 2 2 2 -0.661866 0.644648 0.382573
1.887790 5.021960 -2.139000 22 22 22 -0.028654 0.046514 0.998507
1.887930 7.018210 -2.226150 27 27 27 -0.049981 -0.003068 0.998745
1.893390 9.050870 -2.048220 46 46 46 -0.181428 -0.013846 0.983307
1.864470 11.039700 -1.975260 37 37 37 -0.033028 -0.020258 0.999249
1.872760 13.084200 -1.565840 23 23 23 0.058668 -0.478390 0.876186
2.337640 14.981500 -0.467185 33 33 33 -0.014614 -0.363425 0.931509
2.029220 14.965500 2.772160 15 15 15 -0.866772 0.077960 -0.492573
1.883020 13.987000 10.631300 36 36 36 -0.054896 0.113652 -0.992003
1.887210 14.010600 12.327300 9 9 9 0.345603 -0.938352 -0.007367
1.870430 14.009700 14.183600 3 3 3 0.334677 -0.941558 0.038207
1.884360 13.973500 15.933800 15 15 15 0.302926 -0.944665 -0.125875
1.859790 13.913400 17.829800 20 20 20 0.289509 -0.956815 -0.026277
1.885320 13.965300 19.520000 5 5 5 0.292671 -0.955834 -0.026913
1.887180 13.840800 21.506100 4 4 4 0.212943 -0.976826 0.021572
2.032920 13.981500 24.972000 2 2 2 0.250212 -0.968016 -0.018418
1.993820 13.950300 26.714899 4 4 4 0.228166 -0.973022 -0.034178
1.862560 13.760400 28.681700 10 10 10 0.063286 -0.996006 0.062986
1.844830 13.754400 29.778900 19 19 19 0.140691 -0.988382 -0.057502
1.845800 13.752100 32.280300 13 13 13 0.067615 -0.991449 0.111609
2.239680 14.010500 33.916801 2 2 2 0.178975 -0.983720 0.016188
1.882010 13.749600 35.883801 10 10 10 -0.002162 -0.998061 0.062212
1.881380 13.732400 39.475300 9 9 9 -0.091274 -0.981064 0.170827
1.859740 13.700600 39.500301 4 4 4 -0.142656 -0.969511 0.199243
1.852780 13.765900 43.083302 14 14 14 -0.051292 -0.982559 0.178735
1.974640 13.755600 44.179001 14 14 14 -0.114813 -0.991278 -0.064698
1.871820 13.764900 46.711601 5 5 5 -0.298173 -0.939059 0.171060
2.079380 13.733900 47.781300 9 9 9 -0.108553 -0.988332 -0.106846
2.043750 13.972000 50.233601 3 3 3 -0.099839 -0.992827 0.065774
3.072550 13.941900 51.981800 6 6 6 0.274219 -0.957736 -0.086861
2.036280 13.909100 53.882900 15 15 15 -0.181876 -0.974456 0.131748
2.056100 13.907800 57.478699 6 6 6 -0.206460 -0.959399 0.192167
2.040930 13.929600 57.487801 11 11 11 -0.203397 -0.964436 0.168800
2.092100 14.019200 60.316101 2 2 2 -0.262015 -0.963979 0.045736
2.000240 14.000800 62.221901 5 5 5 -0.440034 -0.864304 -0.243616
2.204910 14.156400 64.682701 13 13 13 0.486770 0.846935 -0.213908
2.091330 14.122700 65.833801 19 19 19 -0.372159 -0.920007 0.122820
2.040660 14.264000 69.415802 16 16 16 -0.420500 -0.905975 -0.048869
1.909650 14.517700 70.440498 3 3 3 -0.639690 -0.768237 -0.024666
2.072920 14.483700 72.308098 5 5 5 -0.505150 -0.862594 -0.027486
2.045170 14.547900 73.781502 7 7 7 -0.562890 -0.825512 0.041033
2.084650 14.686900 76.632896 28 28 28 -0.716193 -0.697875 -0.006217
2.303330 14.753800 79.081398 5 5 5 -0.625337 -0.775678 0.085305
2.243480 14.730300 79.594902 4 4 4 -0.519620 -0.849924 0.087316
2.336600 14.715200 81.979301 5 5 5 -0.584768 -0.785586 -0.202242
1.891800 15.257600 -0.667652 28 28 28 -0.273206 -0.168485 0.947086
1.983770 15.836500 -0.467168 43 43 43 -0.361436 -0.181515 0.914558
1.929300 16.392401 2.723620 23 23 23 -0.746677 -0.467482 -0.473217
2.087990 15.842300 3.777930 18 18 18 0.816044 -0.560010 -0.143040
2.042280 15.032300 10.621300 110 110 110 -0.094146 -0.033105 -0.995008
1.939030 15.025400 75.504898 5 5 5 -0.842183 -0.535631 0.061859
1.917550 15.154900 77.930801 14 14 14 -0.806645 -0.591006 0.005917
2.026180 15.233300 80.075203 18 18 18 -0.703484 -0.707409 0.068432
2.090310 17.207701 -0.175077 38 38 38 -0.422094 -0.184379 0.887604
2.046660 18.591700 4.667840 19 19 19 -0.701671 -0.692962 0.165714
1.850400 18.994900 6.711340 23 23 23 0.175893 0.033214 -0.983849
1.888660 17.127800 10.583500 136 136 136 0.004692 -0.051949 -0.998639
1.967540 19.963200 0.770715 10 10 10 0.512484 -0.588444 0.625375
1.926750 19.036100 6.694030 15 15 15 -0.024082 0.090430 -0.995612
2.077100 19.078300 7.521100 45 45 45 0.313518 -0.926023 -0.210209
1.951650 19.022699 10.571500 15 15 15 -0.094535 -0.008377 -0.995486
1.925070 21.434900 6.507190 72 72 72 0.105176 -0.125392 -0.986516
2.059450 21.401800 10.675600 40 40 40 -0.104346 0.090110 -0.990451
2.448700 22.433800 19.938801 8 8 8 0.787064 -0.613243 -0.066808
3.757830 22.174400 22.443701 3 3 3 -0.005840 0.004933 -0.999971
3.831470 23.395100 1.071220 23 23 23 -0.919712 -0.390253 0.042809
3.839250 23.441601 1.671540 21 21 21 -0.919578 -0.390606 0.042463
3.564230 24.440901 4.918120 21 21 21 -0.920819 -0.387874 0.040563
3.824960 23.911200 5.765280 20 20 20 -0.939346 -0.331462 -0.088103
1.881870 23.225201 10.568900 23 23 23 0.015797 -0.121398 -0.992478
3.321860 23.143299 17.691700 10 10 10 0.738953 -0.673383 0.022437
3.651810 23.338301 20.241800 5 5 5 0.012290 0.013673 -0.999831
3.328930 25.017200 5.078060 21 21 21 -0.920875 -0.387737 0.040623
4.533300 -81.399902 49.847198 25 25 25 0.912378 0.408320 -0.029014
4.618830 -81.137703 53.964699 23 23 23 0.894615 0.439751 -0.079268
4.063780 -80.264397 49.827599 32 32 32 0.902299 0.431109 -0.000701
4.039680 -79.838303 53.976700 34 34 34 0.882791 0.469326 -0.020326
5.521950 -63.096401 -0.540222 86 86 86 -0.308811 0.950276 0.040131
4.280800 -63.620399 0.561846 95 95 95 -0.389445 0.921037 0.004772
4.358680 -63.596500 1.501090 110 110 110 -0.391647 0.920070 0.009103
5.837220 -63.035000 3.522360 24 24 24 0.528376 0.839818 0.124597
5.832090 -62.966499 -0.614848 71 71 71 -0.242204 0.963763 0.111795
5.832400 -62.970100 -0.457935 49 49 49 -0.233077 0.964643 0.123039
5.536130 -62.374001 3.066070 12 12 12 0.742326 0.663052 -0.096506
5.574820 -61.042900 4.350150 29 29 29 0.925420 0.374506 -0.057823
5.754380 -61.318401 5.505900 28 28 28 0.918975 0.391647 -0.045802
4.829890 -59.494400 2.129980 34 34 34 0.919616 0.389508 -0.050900
4.812620 -59.286598 3.542090 33 33 33 0.920169 0.389874 -0.035883
4.790520 -59.022999 5.547180 35 35 35 0.920255 0.388809 -0.044254
4.019060 -57.576099 2.144870 34 34 34 0.920019 0.388381 -0.052208
4.092300 -57.574799 3.508140 34 34 34 0.920736 0.388343 -0.037879
4.073890 -57.325600 5.525590 36 36 36 0.920357 0.388644 -0.043572
3.904310 -56.982899 5.015770 31 31 31 0.920954 0.386926 -0.046179
3.899130 -56.911400 5.517260 33 33 33 0.921186 0.386678 -0.043559
4.092800 -40.319599 -1.601780 39 39 39 0.920363 0.390967 0.008827
4.604530 -34.196499 -1.896120 0 0 0 0.095485 0.175348 0.979865
4.279050 -23.299200 -2.053480 0 0 0 -0.092483 0.796286 -0.597809
4.561350 -17.358400 -2.181700 6 6 6 -0.565802 -0.156583 0.809537
5.762100 -18.321501 0.037702 0 0 0 -0.513621 0.099353 0.852245
3.958250 -15.957200 -2.172770 7 7 7 -0.497737 -0.017633 0.867148
4.916900 -15.498200 -0.468256 0 0 0 0.887959 0.367514 -0.276518
4.998740 -15.486500 1.724180 1 1 1 -0.226956 0.973892 0.005007
5.043080 -15.492400 3.801240 0 0 0 -0.293651 0.955908 0.003018
4.259240 -15.897100 7.476100 0 0 0 -0.361521 0.931828 0.031610
3.962260 -15.989600 7.623930 1 1 1 -0.352258 0.935523 0.026667
3.860810 -14.107700 -2.056570 17 17 17 -0.085506 0.044735 0.995333
4.043430 -11.522500 -2.022880 29 29 29 -0.075424 0.040942 0.996311
3.845400 -10.741900 -2.070250 43 43 43 -0.075457 0.052601 0.995761
3.918140 -8.975250 -2.135070 25 25 25 -0.011666 -0.009830 0.999884
3.852640 -6.974890 -2.084870 22 22 22 0.007221 -0.017438 0.999822
3.858780 -4.979320 -2.031380 22 22 22 -0.000834 -0.020611 0.999787
3.845290 -2.977580 -2.015730 24 24 24 -0.006770 -0.000090 0.999977
5.592240 -1.789030 -0.509526 64 64 64 0.195141 0.980569 0.020100
3.862290 -0.983003 -2.020110 24 24 24 0.131768 0.044785 0.990268
4.159660 -0.059395 -0.470316 1 1 1 -0.458542 -0.316297 0.830479
3.868240 1.244940 -1.987240 10 10 10 -0.040672 0.209051 0.977059
4.078530 2.914270 0.065429 2 2 2 -0.539245 0.516643 0.665053
3.868840 3.093210 -0.668880 2 2 2 -0.698291 0.459416 0.548933
3.864960 3.090030 -0.466881 2 2 2 -0.676137 0.603751 0.422284
3.886380 5.035050 -2.072690 172 172 172 -0.145613 0.174444 0.973841
3.891990 7.034650 -2.139470 96 96 96 -0.051634 -0.040209 0.997856
4.892630 8.315800 -0.473057 71 71 71 -0.941278 0.337320 0.014518
3.891240 9.050780 -1.970150 34 34 34 -0.039559 -0.048897 0.998020
3.926770 11.031300 -1.905720 30 30 30 -0.010542 -0.043098 0.999015
3.893190 13.143900 -1.588630 26 26 26 0.058468 -0.444324 0.893956
5.821700 14.800300 2.861510 21 21 21 0.180837 0.107443 -0.977627
3.879360 14.840300 10.517700 29 29 29 -0.064475 0.103134 -0.992576
3.985870 14.865000 11.553100 13 13 13 0.375698 -0.920852 -0.104322
3.860500 14.759400 14.223500 6 6 6 0.387720 -0.921761 0.005506
3.880180 14.755500 15.932600 4 4 4 0.388272 -0.921538 -0.003639
3.881150 14.755000 17.757999 22 22 22 0.365586 -0.930744 -0.007967
3.869540 14.706900 19.510799 7 7 7 0.375833 -0.926678 -0.004234
3.844120 14.752900 23.024599 3 3 3 0.372980 -0.927830 0.004260
3.873800 14.711500 24.929199 15 15 15 0.391620 -0.920009 -0.014757
3.860140 14.656100 26.682400 33 33 33 0.393559 -0.919253 -0.009226
3.892770 14.702500 28.526199 8 8 8 0.374497 -0.927217 -0.004587
3.875000 14.631900 30.284201 37 37 37 0.381463 -0.924326 -0.010368
3.845580 14.664300 32.080299 1 1 1 0.402509 -0.915403 -0.004877
3.864100 14.510100 33.921902 4 4 4 0.388561 -0.921405 -0.005720
3.861210 14.495700 35.815498 4 4 4 0.390438 -0.919990 0.034308
3.848440 14.444400 37.523602 3 3 3 0.385863 -0.921905 -0.034653
3.929250 14.445900 41.131802 3 3 3 0.402754 -0.915214 -0.013126
3.856290 14.464100 42.977600 17 17 17 0.372685 -0.927958 0.000222
3.882770 14.413200 44.732601 16 16 16 0.382539 -0.923567 -0.026230
3.878360 14.467100 46.578201 22 22 22 0.388081 -0.921601 0.006702
3.925350 14.347500 48.330898 6 6 6 0.389722 -0.920466 -0.029313
3.860830 14.467700 50.167000 10 10 10 0.386431 -0.922313 0.003157
3.852590 14.506800 51.880199 7 7 7 0.382784 -0.922371 0.052037
3.872230 14.430900 53.781399 14 14 14 0.362774 -0.931778 -0.013551
3.887220 14.264800 55.571201 10 10 10 0.373034 -0.922152 -0.102381
3.868530 14.189500 59.155800 4 4 4 0.368218 -0.928352 -0.050769
3.884050 14.243800 61.007500 13 13 13 0.321521 -0.945948 0.042509
3.877810 14.147300 62.774899 4 4 4 0.345214 -0.934046 -0.091568
3.868290 14.179000 64.622803 8 8 8 0.313749 -0.944784 0.094581
3.870760 14.114700 66.382500 8 8 8 0.290742 -0.950941 -0.105735
3.872900 14.189900 68.229797 18 18 18 0.271901 -0.962010 0.024636
3.862900 14.079800 69.960197 12 12 12 0.342887 -0.933582 -0.104177
3.844450 14.149500 71.824203 15 15 15 0.339507 -0.937370 0.077928
4.029800 14.263300 73.533699 36 36 36 0.305945 -0.951310 -0.037519
3.850360 14.235700 76.531601 8 8 8 0.176010 -0.983936 -0.029829
3.982870 14.156400 77.868797 10 10 10 0.271674 -0.962321 -0.011451
3.933390 13.975300 80.181900 7 7 7 0.264498 -0.952703 -0.149660
3.886450 15.043400 -0.617519 38 38 38 0.063878 -0.472758 0.878874
3.883630 15.032200 -0.499851 42 42 42 0.032028 -0.459519 0.887590
5.739030 15.030600 2.979360 32 32 32 -0.334554 -0.419495 0.843859
5.832850 16.508400 5.177110 9 9 9 -0.929541 -0.108067 -0.352527
3.891140 15.041300 10.524500 14 14 14 -0.065081 0.058715 -0.996151
4.270660 15.017400 12.214300 6 6 6 0.378091 -0.925761 -0.003662
4.274110 15.025400 14.062800 1 1 1 0.384492 -0.922896 -0.020683
4.338870 15.033200 15.800600 2 2 2 0.373831 -0.927486 0.004451
4.379620 15.029500 17.679501 4 4 4 0.377608 -0.925627 -0.025033
4.530620 15.045100 21.281000 7 7 7 0.382942 -0.923737 -0.008136
4.586970 15.025100 23.026699 23 23 23 0.380025 -0.924948 -0.007184
4.636990 15.046700 24.883699 10 10 10 0.393433 -0.919331 -0.006432
4.546010 15.019200 26.611500 5 5 5 0.405014 -0.914301 0.004258
4.671950 15.020800 28.399700 3 3 3 0.371638 -0.928374 -0.002681
4.632420 15.022600 30.189301 3 3 3 0.380150 -0.924758 0.017577
4.839220 15.018300 32.084099 16 16 16 0.393380 -0.919355 0.006183
4.740210 15.032000 33.833199 8 8 8 0.378667 -0.925393 -0.016087
4.819970 15.017300 35.702599 10 10 10 0.390136 -0.920513 -0.021182
4.918940 15.061500 39.280899 2 2 2 0.376351 -0.926472 0.003171
4.931100 15.032000 41.028400 15 15 15 0.374920 -0.927037 0.006165
4.972070 15.025600 42.867500 4 4 4 0.400790 -0.916149 -0.006148
5.072030 15.072800 44.624199 7 7 7 0.415181 -0.909739 0.000360
5.088130 15.054000 46.480400 4 4 4 0.364473 -0.930430 -0.038205
5.150180 15.047900 48.231602 16 16 16 0.374796 -0.926958 0.016624
5.163910 15.024600 50.111698 8 8 8 0.400061 -0.916473 -0.005272
5.142650 15.020700 51.828899 11 11 11 0.383385 -0.923588 -0.000666
5.317690 15.034400 53.728401 13 13 13 0.381356 -0.924221 -0.019563
5.424650 15.030900 57.309601 13 13 13 0.389732 -0.920925 -0.002408
5.298440 15.032300 59.027000 8 8 8 0.371696 -0.928320 0.008011
5.379970 15.020600 60.898602 6 6 6 0.401459 -0.915628 -0.021338
5.405750 15.030500 62.623901 9 9 9 0.414278 -0.909476 0.035015
5.666120 15.093800 64.466301 8 8 8 0.364087 -0.931320 -0.009125
5.494460 15.034800 66.236900 9 9 9 0.348919 -0.936754 0.027327
5.783960 15.114100 68.047699 4 4 4 0.392692 -0.919667 -0.002180
5.533100 15.017900 69.844803 10 10 10 0.394462 -0.918889 0.006546
5.771840 15.020300 71.718903 17 17 17 0.389094 -0.920677 0.030988
5.712060 15.028600 75.323799 5 5 5 0.407741 -0.912388 -0.035988
5.823120 15.033900 77.048203 19 19 19 0.380440 -0.923805 -0.043017
5.817470 15.016800 78.937599 6 6 6 0.400401 -0.916010 0.024608
3.977570 17.164200 0.541729 17 17 17 -0.055821 -0.409130 0.910767
5.493010 17.253201 3.829370 20 20 20 -0.329088 -0.927242 -0.178672
3.853190 17.097200 10.629900 156 156 156 -0.116619 0.113233 -0.986701
3.867300 19.825500 6.660030 22 22 22 0.028123 0.101982 -0.994389
4.829130 20.249201 7.803700 1 1 1 0.414151 -0.842581 -0.344290
3.993260 19.059700 10.482300 101 101 101 0.076525 0.006362 -0.997047
4.085550 22.788000 0.984183 24 24 24 -0.869474 -0.490849 0.055509
4.031430 22.978399 1.703530 19 19 19 -0.919049 -0.391834 0.042614
4.326510 22.488100 3.513380 21 21 21 -0.859936 -0.508816 0.040208
3.893730 21.241501 6.727780 173 173 173 -0.043261 -0.010915 -0.999004
3.968150 21.037399 10.608900 22 22 22 -0.018859 -0.061439 -0.997933
3.980730 23.038601 1.018180 22 22 22 -0.911471 -0.409520 0.038916
3.949210 23.194201 1.661580 21 21 21 -0.921621 -0.385853 0.041617
4.082410 23.091900 3.781830 19 19 19 -0.920645 -0.388322 0.040238
4.084900 23.275101 5.528210 24 24 24 -0.924751 -0.378772 -0.036978
3.924670 23.028200 10.452700 22 22 22 -0.066916 -0.064478 -0.995673
5.085770 25.062599 10.380800 19 19 19 -0.065640 -0.135475 -0.988604
5.343210 27.207800 10.363500 3 3 3 -0.104960 -0.005136 -0.994463
5.586120 68.957199 29.102800 25 25 25 0.609092 -0.735486 0.296760
7.520830 -70.566597 1.740260 36 36 36 0.812950 0.195190 -0.548646
7.340290 -65.013702 5.466070 28 28 28 0.929123 0.367813 -0.038002
7.578020 -65.627098 5.556850 26 26 26 0.920786 0.387464 -0.045001
6.340700 -63.266201 0.540278 28 28 28 0.406697 0.911691 0.058455
5.912070 -62.986500 2.225650 24 24 24 0.395663 0.913946 -0.090298
5.913640 -63.007401 3.501280 24 24 24 0.599615 0.797087 0.071517
6.575140 -63.237900 5.601370 28 28 28 0.915967 0.395522 -0.067585
5.984140 -62.905201 -0.652115 92 92 92 -0.202032 0.966523 0.158164
5.984100 -62.907398 -0.493316 79 79 79 -0.226390 0.960537 0.161605
5.908680 -62.949299 1.510710 108 108 108 0.166386 0.978882 -0.118771
5.989180 -62.973400 3.559600 24 24 24 0.672581 0.739923 0.012200
6.056540 -62.030300 5.516590 30 30 30 0.919383 0.390560 -0.046874
7.349560 -57.296001 -1.051710 3 3 3 -0.968623 -0.072352 0.237770
6.984570 -54.993000 -1.413480 39 39 39 -0.952932 -0.112154 0.281677
6.264160 -54.229698 -1.723200 3 3 3 0.751024 0.593055 -0.290257
7.186580 -54.982300 -0.488625 40 40 40 -0.965694 -0.045900 0.255592
7.507410 -54.705502 1.510300 62 62 62 0.197007 0.978704 -0.057680
5.991260 -54.292900 3.766130 86 86 86 -0.507192 0.780786 -0.364869
5.986580 -25.074600 -2.108280 0 0 0 -0.112071 0.492825 -0.862881
6.044310 -21.051100 0.476505 9 9 9 -0.449395 0.726105 0.520399
6.225230 -21.682600 1.513380 23 23 23 -0.720545 0.630023 0.289632
7.210990 -21.239599 3.524930 62 62 62 -0.296348 0.944002 0.145042
7.058350 -20.447201 -2.036810 3 3 3 -0.042581 0.999064 -0.007578
6.083110 -20.892099 0.726518 43 43 43 -0.180068 0.780358 0.598846
7.040790 -20.400400 1.989490 49 49 49 -0.442473 0.535758 0.719153
5.948250 -18.035101 -1.844770 41 41 41 0.856933 0.501134 -0.120545
5.992270 -18.170099 -0.339321 34 34 34 -0.740179 0.007882 0.672364
7.544020 -17.346600 1.697670 61 61 61 -0.879648 0.197920 0.432489
5.853770 -16.820999 0.374061 98 98 98 0.134813 0.198195 -0.970847
6.000890 -15.241800 2.130480 0 0 0 -0.244372 0.969212 -0.030167
