ply
format ascii 1.0
element vertex 710
property float x
property float y
property float z
property uchar red
property uchar green
property uchar blue
property float nx
property float ny
property float nz
end_header
22.192101 19.955900 -2.520070 13 13 13 0.054479 -0.019033 0.998334
21.871099 22.930300 -2.061030 35 35 35 -0.094769 -0.047435 0.994368
23.344000 -16.108400 18.414000 82 82 82 0.438692 0.771833 -0.460243
23.238600 -15.149400 24.212000 10 10 10 0.353527 0.933742 -0.056067
23.298500 -14.981400 27.337999 7 7 7 0.337776 0.940032 -0.047404
23.264200 -14.919900 29.542000 63 63 63 0.393276 0.916722 -0.070390
23.426100 -14.901900 30.689100 79 79 79 0.381287 0.923467 -0.042753
23.483700 -14.772000 32.416698 59 59 59 0.333832 0.940715 -0.060091
23.482500 -14.692200 35.091099 126 126 126 0.373049 0.925291 -0.068341
23.460800 -14.557500 37.850899 89 89 89 0.390608 0.918392 -0.063101
23.439899 -14.463600 38.405701 13 13 13 0.335644 0.940662 -0.049972
23.318899 -14.309300 40.414700 12 12 12 0.332344 0.941789 -0.050810
23.316601 -14.189200 42.502399 9 9 9 0.337592 0.940098 -0.047407
23.346001 -14.087000 44.433300 6 6 6 0.324731 0.944118 -0.056491
23.447001 -14.028900 46.366299 13 13 13 0.335231 0.940418 -0.056866
23.398500 -13.923000 48.905800 6 6 6 0.327291 0.943515 -0.051570
23.358601 -13.779800 50.970600 4 4 4 0.321834 0.945954 -0.039926
23.422600 -13.739500 52.392101 5 5 5 0.325145 0.944734 -0.041939
23.358200 -13.625600 54.411598 18 18 18 0.314156 0.947517 -0.059311
23.451300 -13.561800 57.228100 88 88 88 0.334456 0.941867 -0.032015
23.469999 -13.417200 60.021599 116 116 116 0.320810 0.946205 -0.042161
23.584801 -13.405800 61.358501 36 36 36 0.336090 0.939806 -0.061704
23.477301 -13.267500 62.801601 116 116 116 0.287892 0.956153 -0.053763
23.927700 -13.325900 65.528603 85 85 85 0.332775 0.941773 -0.048203
24.218000 -14.474900 92.601997 33 33 33 0.139715 0.988375 -0.059948
24.219000 -14.436000 95.432602 29 29 29 0.083580 0.995509 -0.044450
23.352400 -14.443200 97.002098 9 9 9 0.021778 0.999269 -0.031404
23.465099 -14.351800 100.091003 15 15 15 0.106071 0.993831 0.032401
24.608700 -14.253300 100.695000 23 23 23 0.016528 0.999784 -0.012623
24.867300 -14.237300 102.977997 25 25 25 -0.015437 0.999778 -0.014344
24.044701 -11.363400 -0.008779 10 10 10 -0.057331 -0.065784 0.996185
23.447599 -13.211000 62.845299 71 71 71 0.267369 0.962549 -0.044873
23.246901 -13.060800 65.577599 114 114 114 0.219069 0.975319 -0.027604
23.419100 -13.006300 68.334000 83 83 83 0.094151 0.993838 -0.058498
23.474501 -12.920600 68.943398 2 2 2 0.096999 0.994833 -0.029963
23.263100 -12.767300 71.117798 106 106 106 0.040219 0.999036 -0.017566
23.362101 -12.710200 73.878304 63 63 63 0.022185 0.999697 -0.010662
23.884300 -12.798400 74.623703 6 6 6 0.078183 0.995872 -0.046112
23.299801 -12.563900 76.619202 14 14 14 -0.113692 0.993436 -0.012593
23.455601 -12.459800 79.384598 35 35 35 -0.218306 0.975712 -0.018148
23.397900 -12.316400 80.806602 64 64 64 -0.443195 0.894898 -0.052308
23.453699 -12.196700 82.886101 53 53 53 -0.441156 0.897252 -0.017906
23.363001 -9.810640 0.041783 74 74 74 0.043176 0.112857 -0.992673
23.640900 -2.364470 1.623140 3 3 3 -0.316537 0.704390 -0.635326
23.584700 -2.538570 2.383010 1 1 1 -0.158776 0.742930 -0.650266
23.323400 2.225080 4.040200 1 1 1 -0.975443 0.124410 0.181749
25.209299 4.277270 1.769440 19 19 19 0.133389 -0.972267 -0.192104
23.245501 5.097080 -2.372130 0 0 0 0.049556 0.022128 0.998526
23.537500 7.804380 -2.439530 0 0 0 -0.083212 -0.054671 0.995031
23.990400 24.711599 -1.604070 5 5 5 0.339524 -0.409319 -0.846866
25.090900 24.392700 0.813036 4 4 4 -0.678944 0.650687 0.340061
23.652700 24.860901 -0.128826 10 10 10 0.675838 -0.657922 0.332238
24.997999 40.487301 -3.333600 88 88 88 -0.609505 -0.335514 0.718285
23.681101 41.559799 -1.831860 2 2 2 -0.203753 -0.324825 0.923566
23.766001 41.589199 -1.578320 2 2 2 -0.173981 -0.399214 0.900199
25.200399 48.673000 -0.012932 37 37 37 -0.879880 -0.221327 0.420506
24.971500 49.289700 0.148386 18 18 18 -0.946940 -0.260268 0.188588
25.186501 48.796902 0.385529 30 30 30 -0.861969 -0.311518 0.399958
25.273300 -14.359200 54.288898 65 65 65 0.379846 0.923852 -0.047063
25.241600 -14.257800 55.739899 108 108 108 0.353952 0.934485 -0.038160
25.389299 -14.256400 57.115299 79 79 79 0.348285 0.936485 -0.041145
25.463699 -14.133800 59.886299 109 109 109 0.335791 0.940703 -0.048183
25.474701 -14.098300 61.188499 10 10 10 0.349963 0.934932 -0.058541
25.726200 -14.068400 62.646999 125 125 125 0.340246 0.938710 -0.055278
25.359900 -13.748500 65.511803 39 39 39 0.322358 0.945619 -0.043482
25.677799 -13.836600 66.798302 72 72 72 0.334179 0.941668 -0.039818
26.221001 -13.876600 70.234901 16 16 16 0.337793 0.940062 -0.046688
26.458599 -13.916600 70.900803 97 97 97 0.336468 0.940541 -0.046607
26.729000 -13.676900 76.463097 99 99 99 0.318385 0.946812 -0.046673
27.222401 -13.759600 79.149597 101 101 101 0.321266 0.945953 -0.044295
25.298700 -14.354400 95.339302 37 37 37 -0.019722 0.999608 -0.019869
25.265301 -14.419300 96.850197 16 16 16 0.031644 0.999292 -0.020360
25.375799 -14.357800 99.918900 7 7 7 0.025088 0.999515 -0.018435
25.296900 -14.228400 100.639000 24 24 24 -0.014038 0.999724 -0.018818
25.274401 -14.217000 102.962997 20 20 20 -0.002295 0.999790 -0.020360
25.550200 -11.998100 -0.061636 7 7 7 -0.409679 -0.587324 0.698007
25.265499 -13.053700 79.277496 124 124 124 0.167773 0.985796 -0.007687
25.729799 6.632420 -2.512030 1 1 1 0.085685 -0.210858 0.973754
25.677601 6.756520 -2.509370 0 0 0 0.093986 -0.216863 0.971667
25.681000 8.947640 -2.221480 20 20 20 -0.087083 -0.068988 0.993809
25.659201 9.010840 -1.622160 160 160 160 0.089548 -0.408086 0.908541
26.961000 14.158800 -2.467360 25 25 25 0.013425 0.133555 0.990950
25.454300 23.770800 -2.352050 7 7 7 -0.223936 0.171252 0.959440
25.779800 24.073700 0.057054 1 1 1 -0.545485 0.540460 0.640584
26.059999 24.521601 0.477181 3 3 3 -0.686931 0.550753 0.474127
26.633699 25.062401 -1.624990 0 0 0 -0.235944 0.295274 0.925820
25.364401 40.739300 -2.655290 74 74 74 -0.625853 -0.225931 0.746501
26.479200 39.475201 -1.162710 27 27 27 -0.582804 0.350286 0.733239
25.375000 40.756302 -2.595880 107 107 107 -0.614117 -0.224334 0.756660
25.686199 41.369598 -1.116130 24 24 24 -0.373869 -0.471381 0.798763
26.964001 44.416302 0.119955 24 24 24 -0.818824 -0.336279 0.465234
26.945299 44.508701 0.365281 31 31 31 -0.814031 -0.286266 0.505377
26.195299 46.237400 -0.064289 31 31 31 -0.830196 -0.335452 0.445249
26.189600 46.364101 0.387231 28 28 28 -0.737367 -0.299567 0.605434
26.953501 46.214100 2.383770 26 26 26 -0.994173 -0.075928 -0.076513
25.439800 48.097099 0.035025 30 30 30 -0.798156 -0.311604 0.515606
25.459200 48.133598 0.377156 28 28 28 -0.745081 -0.355598 0.564273
26.164600 48.724998 2.413750 23 23 23 -0.831478 -0.486193 -0.268813
25.452700 50.088001 -2.443390 63 63 63 -0.979559 -0.163397 -0.117325
25.282700 50.057598 -1.061560 22 22 22 -0.953079 -0.214803 -0.213306
25.255199 50.001202 1.401850 22 22 22 -0.752884 -0.483329 0.446719
25.282400 50.054298 2.389180 18 18 18 -0.575018 -0.670969 0.468141
25.874300 50.756401 2.335830 19 19 19 -0.909887 -0.141477 0.389988
26.969101 52.739101 2.369010 24 24 24 -0.907129 0.170842 0.384617
27.080999 52.793900 2.244200 26 26 26 -0.896383 0.208835 0.391007
27.078699 52.789299 2.393330 25 25 25 -0.899994 0.191425 0.391621
27.317900 -13.807700 79.138397 58 58 58 0.325018 0.944707 -0.043500
28.255501 -14.423300 99.727097 67 67 67 0.055920 0.996291 -0.065400
27.467600 -14.156400 102.785004 30 30 30 -0.012655 0.999390 -0.032536
28.487200 9.604640 -2.005580 4 4 4 0.039838 -0.003958 0.999198
28.887501 13.226700 3.481350 52 52 52 0.242226 -0.899943 0.362530
27.411900 24.522699 -0.765572 2 2 2 0.227994 -0.345792 -0.910190
27.778999 26.140100 -1.840180 3 3 3 -0.455564 -0.142392 -0.878741
27.342300 26.053200 -1.593730 3 3 3 -0.443921 -0.147573 -0.883830
27.851101 30.712900 -3.264850 10 10 10 -0.460180 0.367925 0.808001
27.279400 31.486700 -3.188420 34 34 34 -0.322577 0.102093 0.941021
28.594500 36.749599 -2.517690 116 116 116 -0.772051 0.604790 0.195360
28.695601 36.786701 -2.625530 106 106 106 -0.800527 0.572662 0.176674
28.725700 40.148998 -0.109347 33 33 33 -0.841622 -0.339379 0.420113
28.702700 40.334099 0.364661 35 35 35 -0.735029 -0.325286 0.594913
28.961100 40.369701 3.910470 8 8 8 -0.912549 -0.396640 0.099655
29.207399 39.965099 4.375140 9 9 9 -0.924633 -0.373325 0.075377
27.718800 42.586399 -0.072641 33 33 33 -0.831139 -0.349010 0.432897
27.974701 42.050301 0.365689 33 33 33 -0.747538 -0.298189 0.593524
27.429199 44.055099 -2.021750 36 36 36 -0.920481 -0.371767 -0.120432
27.472401 43.155300 -0.066709 38 38 38 -0.844114 -0.306803 0.439709
27.465000 43.260201 0.364584 36 36 36 -0.754804 -0.348630 0.555633
27.332399 44.772099 0.742366 12 12 12 -0.897179 -0.317721 0.306795
27.236000 46.964699 2.384830 23 23 23 -0.920621 -0.051154 0.387092
27.257999 50.156601 -2.317290 108 108 108 -0.412727 -0.571920 -0.708917
30.479200 6.723810 -2.329610 27 27 27 0.000848 -0.208612 0.977998
30.477600 6.803390 -2.310060 109 109 109 0.005096 -0.203553 0.979051
29.274500 9.584850 -2.377970 2 2 2 -0.134883 -0.168663 -0.976401
29.443399 9.720110 -0.967046 107 107 107 -0.163195 -0.401625 0.901146
30.981501 34.683201 -0.174592 27 27 27 -0.901105 -0.346359 0.260856
31.184601 34.299900 0.388078 26 26 26 -0.944088 -0.291392 0.154233
30.180799 36.649399 -0.160340 37 37 37 -0.851639 -0.342616 0.396642
30.233200 36.619801 0.387098 38 38 38 -0.755562 -0.360466 0.546983
31.187300 35.092499 4.167410 13 13 13 -0.909848 -0.382567 -0.160682
29.701000 38.075100 -1.744520 16 16 16 0.271029 -0.960923 -0.056309
29.388700 38.562698 -0.058654 34 34 34 -0.809416 -0.523287 0.266488
29.704901 38.375801 0.517560 12 12 12 -0.854297 -0.343702 0.389931
29.696301 38.567402 3.674250 9 9 9 -0.905383 -0.418304 -0.072825
29.952299 38.096600 4.390710 8 8 8 -0.919811 -0.385595 0.072550
29.426701 38.820099 -2.592440 38 38 38 -0.864609 -0.497257 0.072019
29.278200 38.824600 -0.115342 24 24 24 -0.812417 -0.479040 0.332413
29.336300 38.800098 0.388871 24 24 24 -0.795694 -0.404611 0.450733
29.436399 39.134998 3.685640 9 9 9 -0.911058 -0.407675 0.061440
29.466299 39.276600 4.364730 8 8 8 -0.921475 -0.380050 0.080280
29.729300 40.794399 -3.303830 4 4 4 -0.808576 0.154445 0.567761
30.337601 43.555199 -1.074820 49 49 49 -0.058911 -0.794164 -0.604842
29.841999 46.612301 1.974990 18 18 18 0.003940 -0.139172 0.990260
30.285101 46.783699 2.123670 9 9 9 -0.026103 -0.069559 0.997236
31.566099 -9.486830 0.416763 8 8 8 0.039908 0.156702 -0.986839
32.200802 -8.889080 -0.051953 3 3 3 -0.030065 0.248832 -0.968080
33.120899 6.133830 3.870900 9 9 9 -0.406847 0.734997 0.542452
31.450399 31.997101 -1.852330 26 26 26 0.318619 -0.936513 0.146375
31.978800 32.450901 -1.579990 10 10 10 -0.097898 -0.992411 0.074400
32.206600 32.352200 0.709162 10 10 10 -0.161811 -0.972431 -0.167914
32.474098 32.373901 2.480610 7 7 7 0.064336 -0.997928 0.000988
32.348499 34.345699 -2.308830 6 6 6 -0.875676 0.216718 0.431537
31.421499 33.613400 -0.211768 27 27 27 -0.789744 -0.196815 -0.581006
31.477501 33.591599 0.381045 27 27 27 -0.886965 -0.461833 0.001648
31.331400 34.722000 4.235850 9 9 9 -0.911778 -0.380267 -0.155103
31.379000 34.599201 4.376970 9 9 9 -0.898228 -0.401766 -0.178243
32.153702 36.546799 -3.393410 18 18 18 -0.690193 -0.568797 -0.447329
31.468599 35.227299 1.958990 29 29 29 -0.922944 -0.306781 0.232507
31.308001 34.782200 4.343720 9 9 9 -0.909422 -0.386908 -0.152492
31.567699 38.334499 -1.978360 58 58 58 0.077346 -0.997001 0.002758
35.093601 -3.465360 2.174450 7 7 7 -0.182758 0.034578 0.982550
35.120899 -3.557920 2.642350 2 2 2 -0.193302 0.074654 0.978295
34.454201 6.557940 4.793690 11 11 11 -0.610726 0.661779 0.434813
34.036301 7.728840 5.317730 255 255 255 -0.381535 -0.767496 -0.515151
34.785801 12.316300 -3.200030 31 31 31 0.183982 -0.444480 0.876692
34.217201 13.734200 -3.241670 33 33 33 -0.586225 0.518382 0.622592
33.472099 17.577200 -0.445990 61 61 61 -0.470567 -0.022514 -0.882077
33.873798 30.460501 -3.558490 39 39 39 -0.478614 -0.648837 0.591557
34.726101 29.984800 -0.472044 34 34 34 -0.936056 0.098716 -0.337720
33.862801 30.761600 -3.569300 46 46 46 -0.543502 -0.701984 0.460243
33.324699 32.397900 -0.205146 7 7 7 0.071124 -0.997325 0.016850
33.349800 32.421902 0.612950 6 6 6 0.065635 -0.997696 0.017198
33.244301 32.484402 2.628700 8 8 8 0.025628 -0.999135 0.032756
34.891300 34.438702 -1.906800 7 7 7 0.032061 -0.997657 0.060443
33.312302 34.402302 -1.341480 6 6 6 0.025709 -0.253599 -0.966968
35.058498 39.248600 -2.711210 18 18 18 -0.859223 -0.262469 0.439141
35.145699 39.145302 -1.620910 41 41 41 -0.929264 -0.165450 -0.330296
34.606499 41.813202 -2.133270 20 20 20 -0.953736 -0.236552 0.185557
34.555401 42.611099 -1.597210 20 20 20 -0.980044 -0.198746 -0.003740
34.167702 45.782799 -1.785310 35 35 35 -0.772154 -0.047613 0.633649
34.597801 46.857201 -2.402920 34 34 34 -0.990700 0.126463 -0.050214
34.077400 48.792301 -2.015260 24 24 24 0.137299 -0.728881 -0.670732
37.134300 -3.526620 1.609190 3 3 3 -0.047322 0.091114 -0.994716
35.925999 10.426100 -3.288940 14 14 14 -0.047187 -0.574776 0.816949
35.282501 12.740100 -1.890020 3 3 3 -0.545590 0.080269 -0.834199
35.449600 12.200500 -0.905259 1 1 1 0.183948 -0.851375 -0.491248
35.557598 12.287800 0.638806 4 4 4 0.080108 -0.980645 -0.178657
35.781700 12.464800 2.766810 4 4 4 0.122763 -0.991247 0.048557
35.781601 28.692101 -3.472510 46 46 46 -0.261969 -0.315560 0.912028
35.481998 28.376801 -1.138480 15 15 15 -0.864926 -0.256452 -0.431433
35.369801 29.397100 -3.564960 31 31 31 -0.355343 -0.597100 0.719168
35.417500 29.738199 -0.263693 21 21 21 -0.994392 -0.073039 -0.076479
36.847900 30.783800 -2.479670 15 15 15 0.125020 -0.320533 0.938951
35.388599 32.468700 -0.420194 6 6 6 -0.434408 -0.399949 -0.807050
35.371300 34.477402 -1.974020 6 6 6 -0.030967 -0.995854 -0.085532
35.282200 34.477699 -1.611480 6 6 6 -0.044034 -0.990416 -0.130907
35.484600 38.051701 -1.369180 9 9 9 -0.986907 -0.118576 0.109338
36.550900 39.195499 -2.015370 37 37 37 -0.024108 -0.084929 0.996095
35.980000 47.710499 1.959460 18 18 18 0.171747 -0.984817 0.025276
37.289799 -3.399270 2.240400 3 3 3 -0.077792 0.046349 -0.995892
37.985401 6.641170 2.086080 24 24 24 -0.471939 -0.170695 -0.864949
37.315701 6.283540 2.581610 83 83 83 -0.490591 -0.389384 -0.779552
37.981098 6.837780 2.140000 58 58 58 -0.477198 -0.120707 -0.870466
37.983799 6.934780 2.362590 61 61 61 -0.519966 -0.020242 -0.853947
37.300800 12.784700 -0.596475 9 9 9 0.166628 -0.901465 -0.399496
38.662601 16.428900 -3.422230 28 28 28 -0.200711 -0.177065 0.963516
38.656300 16.887400 -3.380510 48 48 48 -0.236601 -0.113797 0.964920
38.580601 18.922701 -3.465330 51 51 51 -0.366706 0.172119 0.914277
37.460899 27.203300 -2.624300 110 110 110 -0.844333 -0.452115 0.287564
37.279202 27.284401 -1.321720 23 23 23 -0.198777 -0.770378 -0.605810
38.887501 28.237301 1.926550 5 5 5 -0.484099 0.163125 0.859673
37.326900 29.089001 -3.006280 6 6 6 -0.231303 -0.310615 0.921964
38.639900 32.444599 -1.871950 6 6 6 -0.090928 -0.182136 0.979060
38.792301 34.792400 -1.623570 48 48 48 -0.008587 -0.121249 0.992585
39.179298 45.440498 7.541120 50 50 50 -0.953668 -0.171271 0.247353
38.440102 48.016399 6.169340 30 30 30 -0.943646 0.031510 0.329455
38.451698 48.030800 6.407480 41 41 41 -0.938975 0.052761 0.339914
38.621101 48.120300 8.407710 35 35 35 -0.997417 -0.065343 -0.029841
38.938301 48.389702 12.493200 40 40 40 -0.954571 -0.234996 0.183225
39.215500 48.227100 15.784500 36 36 36 -0.805787 -0.024383 0.591704
38.832001 48.884499 6.678150 55 55 55 -0.982570 0.181153 0.041714
38.969101 48.926899 8.389130 49 49 49 -0.980486 0.179935 0.079193
38.949299 50.969799 6.975970 46 46 46 -0.997830 -0.034069 0.056338
39.170898 50.869202 9.994500 22 22 22 -0.996302 -0.027732 0.081320
39.226398 50.941200 10.424800 42 42 42 -0.994957 -0.041877 0.091143
38.724201 54.561501 6.791540 67 67 67 -0.986023 -0.026037 0.164560
38.970501 54.034500 9.688350 62 62 62 -0.985053 -0.006666 0.172123
39.172798 52.761299 10.621100 41 41 41 -0.994719 -0.039082 0.094905
39.224300 54.098301 12.600000 63 63 63 -0.993338 -0.014881 0.114271
38.677399 56.115898 6.777560 65 65 65 -0.988087 -0.055542 0.143527
38.985298 55.219002 9.145720 58 58 58 -0.997579 -0.027731 0.063772
38.979500 56.254299 10.601100 46 46 46 -0.999017 -0.042406 0.012935
39.148800 54.855999 12.670400 14 14 14 -0.993411 0.024733 0.111907
38.675800 56.880100 7.775320 11 11 11 -0.998053 -0.039562 -0.048219
38.924400 56.780998 9.691280 65 65 65 -0.993968 -0.033598 0.104395
38.967899 56.843700 10.586700 51 51 51 -0.999389 -0.034019 0.007997
39.084099 56.856300 12.581500 66 66 66 -0.984209 -0.068885 0.163054
38.695099 58.956799 7.337480 38 38 38 -0.998126 -0.017106 0.058750
38.871399 58.896198 9.629250 44 44 44 -0.997718 -0.031591 0.059679
38.939701 58.838902 10.376100 45 45 45 -0.997046 -0.029800 0.070788
39.098999 58.921001 12.422800 40 40 40 -0.994771 -0.023291 0.099437
39.201302 60.217899 15.182300 57 57 57 -0.979724 -0.041094 0.196091
38.662998 60.893501 7.695110 38 38 38 -0.996707 -0.029732 0.075435
38.675098 62.455299 8.572840 39 39 39 -0.996065 -0.041591 0.078260
38.868999 60.880699 10.429900 39 39 39 -0.997133 -0.030768 0.069135
38.969398 61.207298 12.413900 69 69 69 -0.996349 -0.004649 0.085246
39.205299 62.431999 14.980400 43 43 43 -0.997485 -0.038900 0.059242
38.722198 62.884201 9.418750 41 41 41 -0.995642 -0.053507 0.076375
38.694500 63.377701 10.444000 27 27 27 -0.998714 -0.029510 -0.041230
38.975601 62.764000 12.429800 43 43 43 -0.998231 -0.037143 0.046426
39.146801 62.863602 14.494700 38 38 38 -0.995653 -0.046261 0.080845
38.644699 64.931099 9.352480 42 42 42 -0.997277 -0.028607 0.067974
38.728600 64.888100 10.439600 46 46 46 -0.996616 -0.026684 0.077752
38.890999 64.792000 12.433100 41 41 41 -0.996504 -0.035032 0.075852
38.955799 66.402496 15.068100 56 56 56 -0.982335 -0.043223 0.182071
38.709599 68.722801 12.131400 40 40 40 -0.996419 -0.033893 0.077467
38.734299 68.564201 12.438800 38 38 38 -0.996431 -0.032010 0.078102
38.922600 68.295700 15.239600 12 12 12 -0.995868 -0.063760 0.064664
38.696999 68.902802 12.129100 39 39 39 -0.996223 -0.036342 0.078855
38.718102 68.940201 12.438400 35 35 35 -0.996221 -0.034734 0.079607
38.867802 69.205002 14.438000 33 33 33 -0.996256 -0.037613 0.077840
38.617802 73.898201 15.944700 9 9 9 -0.940358 -0.132015 0.313525
38.604301 73.871498 16.373600 12 12 12 -0.926511 -0.155355 0.342698
39.036201 74.469002 18.423201 10 10 10 -0.995372 0.067568 -0.068326
39.182301 81.081703 18.505301 11 11 11 -0.977433 -0.057358 0.203311
39.462299 6.952420 -2.476020 27 27 27 -0.939784 0.294692 -0.173100
40.785702 12.674300 -3.194510 8 8 8 -0.921082 0.368175 -0.126712
40.731998 12.712600 -0.468504 107 107 107 -0.666284 -0.332111 0.667659
40.869099 12.361200 2.898120 82 82 82 -0.810500 -0.382236 0.443830
40.983002 12.395100 4.365210 100 100 100 -0.275379 -0.950427 -0.144411
41.161800 12.448400 6.636200 72 72 72 -0.662925 -0.693733 0.281540
40.706100 12.818800 -3.339050 25 25 25 -0.907939 -0.131886 0.397810
40.734299 12.826700 -0.440728 125 125 125 -0.826113 -0.236855 0.511309
40.731701 14.246000 0.369375 98 98 98 -0.958081 0.125038 0.257773
40.731201 13.445000 2.920850 44 44 44 -0.995357 0.019486 -0.094258
40.847698 13.257500 4.389240 85 85 85 -0.988863 -0.141233 0.046929
40.985699 13.987400 6.363120 76 76 76 -0.995165 -0.034177 0.092074
41.231400 13.438200 9.336720 101 101 101 -0.998302 -0.033307 0.047799
39.275101 16.342100 -3.279890 17 17 17 -0.191142 -0.234036 0.953253
40.638199 14.848600 -0.481848 120 120 120 -0.982350 -0.067879 0.174304
40.679901 15.913500 0.373917 54 54 54 -0.909145 -0.066971 0.411061
40.677898 14.862000 2.837060 71 71 71 -0.997954 -0.010451 -0.063075
40.809399 14.851400 4.616430 96 96 96 -0.996260 -0.049901 0.070541
40.956299 14.785800 6.379760 94 94 94 -0.994532 -0.038468 0.097094
41.129700 14.966400 8.646480 111 111 111 -0.992023 -0.062577 0.109430
41.230701 15.828700 10.390400 94 94 94 -0.997701 -0.036665 0.056999
40.612701 16.780300 -2.919090 38 38 38 -0.469762 -0.122276 0.874284
40.566002 16.760099 -0.542597 103 103 103 -0.967147 -0.022114 0.253252
40.979099 17.110600 0.528015 41 41 41 -0.898671 -0.010698 0.438492
40.616501 16.958200 2.904180 61 61 61 -0.993313 -0.087860 -0.074903
40.715302 17.909800 4.811700 92 92 92 -0.984026 -0.141822 0.107612
40.905899 16.898001 6.386600 66 66 66 -0.999591 -0.025188 -0.013560
41.121601 16.804100 9.448930 74 74 74 -0.994466 -0.038682 0.097678
41.202702 16.836800 10.641500 66 66 66 -0.988844 0.005882 0.148838
39.481998 19.481701 -3.411280 51 51 51 -0.683780 0.537778 0.493193
40.481400 19.472200 -0.544032 127 127 127 -0.987544 0.074006 0.138849
40.668400 19.945200 0.392005 55 55 55 -0.946060 -0.070498 0.316230
40.479500 20.162399 2.769980 82 82 82 -0.977551 -0.020666 -0.209685
40.667400 19.435101 4.937390 95 95 95 -0.993249 0.091376 0.071463
40.801300 18.807199 6.389460 93 93 93 -0.995048 -0.032813 0.093826
40.970299 20.337000 9.191400 86 86 86 -0.995336 -0.035379 0.089752
41.132000 18.830999 10.394300 93 93 93 -0.996304 -0.035968 0.078002
41.217098 20.392799 12.426200 72 72 72 -0.994806 -0.030151 0.097223
39.562000 22.058100 -0.409109 1 1 1 -0.591307 -0.139835 0.794230
40.898899 20.759300 0.419987 6 6 6 -0.983594 0.154989 0.092306
40.455200 20.920700 2.680550 82 82 82 -0.983526 -0.160828 -0.082526
40.695999 20.980301 5.956420 94 94 94 -0.998091 -0.053543 -0.030767
40.729301 20.931499 6.383520 86 86 86 -0.999316 -0.030434 0.020999
40.955700 20.979500 9.340170 89 89 89 -0.994693 -0.030741 0.098188
40.981300 22.580299 10.369600 85 85 85 -0.994797 -0.035177 0.095612
41.222500 20.982300 12.488000 37 37 37 -0.997127 -0.038536 0.065216
39.541801 23.372101 -0.520205 9 9 9 -0.662657 -0.005996 0.748899
40.704399 24.684999 0.407497 58 58 58 -0.788412 -0.002713 0.615142
40.393700 22.927700 2.821520 64 64 64 -0.990690 -0.021244 -0.134470
40.484402 23.310499 4.422000 95 95 95 -0.980324 -0.130070 0.148479
40.657001 22.800400 6.380070 76 76 76 -0.996917 -0.030516 0.072289
40.867199 22.782000 9.211080 35 35 35 -0.998812 -0.048509 0.004713
40.977100 23.187901 10.363100 79 79 79 -0.986784 0.011058 0.161661
41.146301 22.805700 12.463500 48 48 48 -0.997793 -0.005427 0.066174
40.190102 26.134300 -2.483360 67 67 67 0.031222 -0.984845 -0.170602
39.478001 24.759501 -0.469199 5 5 5 -0.596860 0.352713 0.720661
40.417400 26.209000 0.363923 57 57 57 -0.945397 0.000446 0.325920
40.302502 24.782600 2.710050 91 91 91 -0.994774 -0.034460 0.096111
40.535599 24.786600 5.700680 88 88 88 -0.996291 -0.033037 0.079457
40.594898 24.755501 6.386210 76 76 76 -0.995973 -0.035022 0.082527
40.686798 26.452700 8.417290 90 90 90 -0.996429 0.039704 0.074520
40.914398 24.948400 10.598000 84 84 84 -0.988102 -0.034333 0.149919
41.080898 24.835300 12.379800 31 31 31 -0.998073 -0.045081 0.042646
40.765800 28.518700 -2.483160 12 12 12 -0.305478 -0.173790 -0.936205
40.661400 26.876301 0.270231 6 6 6 -0.986484 0.145075 0.076174
40.694801 26.898399 0.393046 5 5 5 -0.983990 0.174345 0.036986
40.224899 26.949400 2.687940 89 89 89 -0.972427 -0.079852 -0.219110
40.485298 26.906601 5.940830 69 69 69 -0.995548 -0.031385 0.088876
40.485199 27.791901 6.386840 83 83 83 -0.996362 -0.033070 0.078543
40.734299 26.996000 9.190710 76 76 76 -0.997325 -0.054402 0.048822
40.827400 26.907600 10.378100 65 65 65 -0.985593 -0.094392 0.140346
40.968601 27.298401 12.406100 77 77 77 -0.995554 -0.056650 0.075249
41.235699 27.249001 15.658800 70 70 70 -0.994128 -0.035514 0.102217
40.364899 29.158701 -2.289370 29 29 29 -0.068757 0.054361 0.996151
40.160900 28.853800 2.598870 36 36 36 -0.990761 -0.135478 0.006260
40.235298 30.151699 4.372380 91 91 91 -0.982467 -0.034317 0.183252
40.449200 28.753599 6.380150 83 83 83 -0.995906 -0.038154 0.081950
40.658100 28.824800 9.051260 25 25 25 -0.995035 -0.035325 0.093041
40.749802 28.811899 10.379700 57 57 57 -0.988904 0.047790 0.140662
40.936501 28.787100 12.626400 84 84 84 -0.993792 -0.034384 0.105809
41.172401 28.872999 15.559000 73 73 73 -0.996712 -0.073131 0.034878
41.222401 29.609800 16.390800 68 68 68 -0.996637 -0.030379 0.076105
39.405899 32.499199 -2.042930 6 6 6 -0.057176 -0.164262 0.984758
39.884701 32.225300 -1.607300 50 50 50 -0.323052 -0.284447 0.902622
40.192501 31.649099 1.959070 51 51 51 -0.995894 0.090524 0.000655
39.985901 32.641102 4.225810 57 57 57 -0.906642 -0.418538 -0.053164
39.714699 32.668701 5.665890 55 55 55 -0.805211 -0.556494 -0.204819
40.372299 30.810801 6.368610 81 81 81 -0.996476 -0.033149 0.077047
40.584599 30.971600 9.023350 94 94 94 -0.997566 0.025207 0.065011
40.678200 30.961201 10.381200 71 71 71 -0.995600 0.048132 0.080396
40.842800 30.926201 12.394600 72 72 72 -0.997499 0.023362 0.066701
41.136902 30.903400 15.687600 59 59 59 -0.996991 -0.034055 0.069640
41.203201 30.952700 16.637199 62 62 62 -0.989499 -0.008686 0.144281
39.419399 32.928799 5.234950 68 68 68 -0.703639 -0.697413 0.136039
39.587101 32.896801 7.440650 68 68 68 -0.722117 -0.688646 0.065672
39.809399 32.995098 10.233100 57 57 57 -0.718378 -0.659245 0.222102
39.815300 32.915100 10.375700 57 57 57 -0.668530 -0.695036 0.264561
39.972099 32.959702 12.403600 60 60 60 -0.527601 -0.840202 -0.125292
40.123100 33.167198 14.393400 70 70 70 -0.878197 -0.467470 0.101203
40.233700 34.731998 16.646500 60 60 60 -0.996035 -0.043496 0.077604
40.447399 33.181198 18.417801 48 48 48 -0.795729 -0.596591 0.104379
40.618099 33.234699 20.669001 40 40 40 -0.883169 -0.459835 0.092539
39.376301 34.871899 5.728280 53 53 53 -0.964663 -0.235547 0.118077
39.524502 35.898998 7.966950 64 64 64 -0.996549 -0.033134 0.076101
39.770100 34.949299 10.786200 63 63 63 -0.996314 -0.034743 0.078432
39.894100 34.968399 12.364900 62 62 62 -0.996381 -0.034274 0.077779
40.098000 34.883099 14.923500 60 60 60 -0.996176 -0.040663 0.077333
40.223598 34.902500 16.644199 61 61 61 -0.996146 -0.041302 0.077380
40.373600 34.761700 18.406799 52 52 52 -0.996009 -0.042254 0.078616
40.483898 35.844898 20.401899 49 49 49 -0.996318 -0.033751 0.078806
39.480801 36.959301 7.798720 51 51 51 -0.996691 -0.030698 0.075269
39.631699 37.381699 9.982460 58 58 58 -0.996592 -0.030052 0.076822
39.649101 37.773800 10.393700 52 52 52 -0.996356 -0.030406 0.079685
39.856602 36.845501 12.644000 54 54 54 -0.996777 -0.024713 0.076324
39.979198 37.139500 14.420200 45 45 45 -0.996227 -0.041910 0.075994
40.150799 36.829601 16.410400 48 48 48 -0.996617 -0.029713 0.076630
40.317600 36.795300 18.664900 58 58 58 -0.996324 -0.036861 0.077325
40.469002 36.841202 20.597799 49 49 49 -0.996391 -0.034227 0.077672
39.761101 40.649601 12.293000 59 59 59 -0.997762 -0.054048 0.039365
39.715801 40.701698 12.430700 51 51 51 -0.996949 -0.022108 0.074855
39.977200 40.453800 15.629300 49 49 49 -0.997161 -0.022377 0.071896
40.087399 38.769100 16.408199 51 51 51 -0.996305 -0.028057 0.081173
39.661201 40.846001 11.809500 53 53 53 -0.996503 -0.025025 0.079722
39.728001 40.812698 12.656300 51 51 51 -0.996980 -0.021948 0.074489
39.858898 40.946400 14.363900 52 52 52 -0.996051 -0.028693 0.084016
39.976799 42.327400 16.369900 48 48 48 -0.996139 -0.032247 0.081649
39.699402 42.783501 13.077100 49 49 49 -0.996896 -0.035180 0.070438
39.892601 42.769901 15.477300 46 46 46 -0.996666 -0.028324 0.076518
39.958900 42.840500 16.372400 46 46 46 -0.996429 -0.027197 0.079939
39.623798 44.803101 12.883200 48 48 48 -0.997362 -0.038232 0.061711
39.837700 44.820099 15.504600 41 41 41 -0.996662 -0.032836 0.074739
39.906799 44.782200 16.412800 46 46 46 -0.996885 -0.028667 0.073471
39.539501 46.796101 13.335100 62 62 62 -0.987381 -0.148870 0.054007
39.237999 48.254501 16.126600 38 38 38 -0.790952 0.008860 -0.611814
39.248798 48.388401 16.385300 34 34 34 -0.879444 0.043272 -0.474032
39.422901 48.991199 13.803500 61 61 61 -0.996757 0.055105 0.058648
39.541000 49.137199 15.179600 17 17 17 -0.981311 0.182713 0.060363
39.735298 49.754398 16.367500 40 40 40 -0.992888 0.009826 0.118646
39.239101 50.957600 10.594100 41 41 41 -0.995256 -0.040680 0.088381
39.349300 51.625500 12.375000 41 41 41 -0.995802 -0.050668 0.076233
39.629299 50.920300 15.685900 25 25 25 -0.994705 -0.040782 0.094331
39.703300 50.758400 16.394501 41 41 41 -0.995095 -0.042584 0.089293
39.242699 52.997799 12.430400 69 69 69 -0.991675 -0.055386 0.116246
39.552898 52.851398 15.559000 33 33 33 -0.996080 -0.036816 0.080434
39.616699 52.799900 16.370199 40 40 40 -0.996283 -0.035920 0.078291
39.237400 55.281399 12.089500 46 46 46 -0.998002 -0.052550 0.035078
39.242100 54.986599 12.876400 23 23 23 -0.997641 -0.008422 0.068126
39.399700 54.770302 15.399900 46 46 46 -0.992368 -0.010286 0.122878
39.484600 56.216999 16.394699 41 41 41 -0.997714 -0.031671 0.059693
39.237099 57.701698 13.539100 39 39 39 -0.994143 -0.020598 0.106090
39.332699 56.909698 15.096800 64 64 64 -0.990822 -0.054275 0.123797
39.324299 58.940201 15.164200 36 36 36 -0.996788 -0.035229 0.071915
39.266899 60.815300 15.222100 34 34 34 -0.996604 -0.029186 0.077003
39.367500 74.642998 18.313101 12 12 12 -0.996174 0.019635 0.085158
39.356499 74.622101 18.421700 12 12 12 -0.997014 0.023384 0.073600
40.200401 74.377403 37.452301 3 3 3 0.469069 -0.882538 -0.033173
40.298698 75.037300 15.977300 8 8 8 -0.920111 0.239856 -0.309622
39.966301 74.867104 18.193800 9 9 9 -0.946867 -0.038001 0.319374
39.960800 74.856003 18.414200 8 8 8 -0.945249 -0.044983 0.323236
39.797001 74.763603 27.722500 10 10 10 0.377029 -0.926197 -0.002792
39.919601 74.768600 29.788000 5 5 5 0.389824 -0.920856 -0.007804
40.108398 74.896400 31.338800 7 7 7 0.371437 -0.928453 -0.003026
40.386799 74.952698 34.532501 9 9 9 0.383367 -0.923577 -0.005936
40.512199 74.956001 36.473499 9 9 9 0.390518 -0.920557 -0.008369
39.399700 81.015503 18.583300 10 10 10 -0.978502 -0.027070 0.204453
41.312000 8.893450 0.085609 159 159 159 -0.706080 0.092369 0.702082
41.327301 8.950440 0.442998 40 40 40 -0.826154 0.142312 0.545175
41.402199 12.696600 -3.202120 13 13 13 -0.508973 -0.738892 0.441571
41.298302 12.549000 -0.341027 23 23 23 -0.342630 -0.715163 0.609218
41.365700 12.398800 3.231060 41 41 41 -0.292040 -0.955890 -0.031430
41.239300 12.415800 5.613840 31 31 31 -0.385236 -0.894026 0.228714
41.366901 12.453900 6.627860 39 39 39 -0.381865 -0.911644 0.151936
41.451099 12.478600 8.375330 22 22 22 -0.564512 -0.824221 0.044558
41.386902 12.629400 10.375400 54 54 54 -0.815681 -0.444519 -0.370226
41.662701 12.597500 12.391400 47 47 47 -0.419393 -0.813371 0.403158
41.729500 12.732100 14.371500 52 52 52 -0.504774 -0.831248 -0.232873
41.979599 12.691500 16.391701 47 47 47 -0.225181 -0.872724 0.433181
42.163200 13.626900 -1.815460 19 19 19 -0.994683 -0.093995 0.042081
41.410400 13.039000 1.079640 25 25 25 -0.511558 -0.704441 0.492008
41.459599 13.283400 2.727030 9 9 9 -0.603581 -0.386623 -0.697289
41.334301 14.397200 8.175010 28 28 28 -0.976164 -0.178152 0.123962
41.258301 12.760700 9.404600 84 84 84 -0.809673 -0.454404 0.371412
41.340000 12.785500 10.394300 82 82 82 -0.776673 -0.571152 -0.265641
41.482201 13.632100 12.696800 87 87 87 -0.991906 -0.083306 0.095827
41.728901 14.237000 15.930900 62 62 62 -0.994621 -0.035004 0.097492
41.845501 12.882400 16.618900 76 76 76 -0.689934 -0.485407 -0.537002
41.972000 14.377200 19.239799 76 76 76 -0.998114 -0.010448 0.060485
42.218899 12.819900 20.381500 89 89 89 -0.533594 -0.704931 -0.467278
42.232101 14.464500 22.573799 69 69 69 -0.994381 -0.031425 0.101091
42.474201 14.726500 25.740499 64 64 64 -0.994632 0.084102 0.060291
42.687801 12.958900 26.400999 71 71 71 -0.655880 -0.337808 -0.675061
42.874901 13.014300 28.928600 67 67 67 -0.456493 -0.636366 0.621813
43.132900 13.090600 32.245098 62 62 62 0.037774 0.379169 -0.924556
43.059601 13.482700 32.386902 47 47 47 0.084731 0.353662 -0.931528
41.627102 14.797000 -1.507090 20 20 20 -0.682814 -0.531794 -0.500959
41.241100 14.890600 1.039400 23 23 23 -0.886268 0.013156 0.462986
41.380199 14.881000 2.656080 26 26 26 -0.679580 -0.046960 -0.732097
41.239601 14.769800 9.975280 91 91 91 -0.996705 -0.027163 0.076425
41.293400 14.788900 10.393400 78 78 78 -0.992346 -0.043257 0.115664
41.453999 14.962900 12.603800 44 44 44 -0.998251 -0.053519 0.025104
41.733002 14.827700 16.041800 39 39 39 -0.996584 -0.035870 0.074383
41.735100 15.062600 16.390301 75 75 75 -0.996156 -0.034366 0.080571
41.981701 14.972900 19.304100 65 65 65 -0.999183 -0.036653 0.017050
41.983299 16.235300 20.369200 46 46 46 -0.999347 -0.017289 0.031715
42.218399 15.114200 22.488800 63 63 63 -0.996277 -0.036093 0.078292
42.483398 14.788700 25.740299 59 59 59 -0.996757 0.069551 0.040472
42.480400 16.486099 26.396099 62 62 62 -0.996847 -0.037043 0.070169
42.733200 14.814400 29.002100 54 54 54 -0.995479 -0.030226 0.090049
42.985901 15.323800 32.287399 49 49 49 -0.998593 -0.052705 -0.005791
42.980400 15.565200 32.427700 44 44 44 -0.991012 -0.075712 -0.110281
41.534599 17.160601 -1.513270 23 23 23 -0.610138 0.686744 -0.395112
41.237999 17.342501 1.514760 24 24 24 -0.976428 -0.023298 0.214582
41.270599 18.274599 8.800340 17 17 17 -0.989426 0.018567 -0.143842
41.236698 16.850800 10.413900 84 84 84 -0.991612 -0.020559 0.127604
41.376301 16.785500 12.621000 64 64 64 -0.994528 0.102457 -0.020414
41.625900 16.760201 15.941800 71 71 71 -0.996019 -0.074494 -0.048958
41.665100 16.900801 16.388100 83 83 83 -0.995542 -0.040071 0.085380
41.878399 16.923100 19.164499 67 67 67 -0.998967 -0.022306 0.039590
41.974701 16.837601 20.369699 74 74 74 -0.997864 -0.034760 0.055311
42.137100 16.842899 22.405800 74 74 74 -0.994039 -0.036450 0.102748
42.392200 16.943001 25.690901 73 73 73 -0.997494 -0.018614 0.068257
42.479000 16.792500 26.596201 70 70 70 -0.997365 -0.033435 0.064387
42.659801 16.862600 28.993601 63 63 63 -0.989189 -0.124094 0.078136
42.930401 16.839100 32.193901 49 49 49 -0.999534 -0.020837 0.022297
42.933601 16.779400 32.374901 58 58 58 -0.999620 -0.026741 0.006674
42.116600 20.385900 -2.417940 3 3 3 -0.283574 0.292444 0.913270
42.970001 19.355700 -1.349830 27 27 27 -0.354721 0.248257 0.901411
41.276001 18.895901 12.493300 90 90 90 -0.994681 -0.034845 0.096930
41.474499 20.457300 15.679100 76 76 76 -0.996078 -0.073439 0.049355
41.591301 18.915600 16.393999 81 81 81 -0.995963 -0.037938 0.081350
41.797901 18.945999 19.135401 75 75 75 -0.994323 -0.039142 0.098947
41.882900 19.169800 20.386999 22 22 22 -0.985030 -0.117137 0.126472
42.117001 18.766300 22.444799 38 38 38 -0.999234 -0.032477 -0.021840
42.367199 18.876101 25.683100 39 39 39 -0.999356 -0.015418 -0.032399
42.400200 18.765699 26.402599 60 60 60 -0.996185 -0.031899 -0.081224
42.615002 18.921400 28.906500 34 34 34 -0.999316 0.020752 -0.030613
42.976601 18.824800 30.405100 48 48 48 -0.964714 -0.002132 0.263290
42.875099 18.778900 32.374500 50 50 50 -0.997469 -0.045372 -0.054738
42.612499 21.630699 -3.831120 50 50 50 -0.975312 0.211691 0.062871
41.534000 20.822701 -2.261900 7 7 7 -0.151345 0.345150 0.926265
42.796501 21.455299 -1.609030 72 72 72 -0.982703 0.075495 0.169104
41.747101 21.320101 1.694840 29 29 29 -0.691209 0.507548 0.514418
41.362900 21.784201 7.780510 18 18 18 -0.697162 -0.630744 0.340775
41.385502 21.795799 8.389950 22 22 22 -0.707310 -0.665074 -0.239561
41.243198 20.929001 12.686200 77 77 77 -0.997409 -0.033975 0.063413
41.450901 21.162701 15.736800 78 78 78 -0.995525 -0.045167 0.083001
41.478001 22.240801 16.389799 72 72 72 -0.998323 -0.045519 0.035758
41.725700 21.170700 19.134899 71 71 71 -0.999315 -0.006660 -0.036416
41.967800 21.491400 22.341600 66 66 66 -0.997047 -0.066550 0.038310
41.985901 21.235800 22.364901 68 68 68 -0.998813 -0.044159 0.020550
42.235901 21.360300 25.640100 63 63 63 -0.997077 -0.062322 0.044204
42.317501 20.805901 26.408300 61 61 61 -0.997435 -0.028677 0.065584
42.485802 22.088699 28.878799 57 57 57 -0.997003 -0.035748 0.068615
42.716801 22.275600 32.088200 52 52 52 -0.996608 -0.021720 0.079377
42.732899 22.560301 32.363602 54 54 54 -0.995953 -0.032175 0.083920
43.185902 23.023600 -1.572540 17 17 17 -0.955578 0.210040 0.206771
41.639198 22.876600 1.671420 9 9 9 -0.246229 -0.881105 0.403764
42.717701 23.256800 2.367730 7 7 7 -0.013478 -0.859145 0.511554
41.238201 23.670099 10.956700 56 56 56 -0.973430 0.035621 0.226196
41.238701 22.856501 13.381500 67 67 67 -0.990065 -0.027723 0.137852
41.290600 22.817600 14.366100 66 66 66 -0.995605 0.016610 0.092166
41.485802 22.785601 16.621099 92 92 92 -0.995850 -0.032745 0.084918
41.659599 22.809500 19.076401 72 72 72 -0.995218 -0.057800 0.078745
41.918499 22.812201 22.265499 75 75 75 -0.994495 -0.036714 0.098142
41.945702 22.894400 22.643101 66 66 66 -0.995110 -0.035739 0.092076
42.204102 22.764200 25.583000 60 60 60 -0.996962 -0.031722 0.071139
42.223801 23.668600 26.366100 64 64 64 -0.997850 -0.025285 0.060471
42.440800 22.958900 28.841000 55 55 55 -0.995464 -0.036990 0.087652
42.725498 22.900299 32.094799 49 49 49 -0.999829 -0.006855 -0.017164
42.733700 23.045401 32.631901 49 49 49 -0.997392 -0.031806 0.064797
42.853100 25.914000 -4.030620 38 38 38 -0.057370 -0.992478 0.108146
42.885601 26.009501 -3.607340 86 86 86 -0.121681 -0.989872 0.073129
43.052799 26.109900 -1.402580 97 97 97 -0.141147 -0.989328 0.036174
42.045300 26.296101 1.878800 7 7 7 -0.340739 -0.928030 0.150526
42.076000 26.313900 5.388930 27 27 27 -0.404744 -0.038680 -0.913612
41.238701 26.004000 12.077500 45 45 45 -0.994082 -0.036912 -0.102166
41.340099 24.918699 14.289300 22 22 22 -0.986017 0.006410 0.166524
41.366199 24.792200 15.840800 66 66 66 -0.999533 -0.019128 0.023834
41.397900 24.811001 16.390400 66 66 66 -0.995694 -0.040776 0.083257
41.612099 24.867399 19.029800 59 59 59 -0.996422 -0.037860 0.075562
41.875099 24.952200 22.331699 61 61 61 -0.998776 -0.019733 0.045355
41.898201 24.753901 22.424000 49 49 49 -0.998496 -0.023989 0.049301
42.146000 24.824900 25.532600 25 25 25 -0.997624 -0.040428 0.055790
42.193699 25.353500 26.668699 60 60 60 -0.997820 -0.032057 0.057691
42.392502 24.752701 28.820900 48 48 48 -0.996031 -0.028940 0.084171
42.647598 24.761700 32.165001 43 43 43 -0.997604 -0.025268 0.064403
42.682301 24.781601 32.636902 41 41 41 -0.996656 -0.027423 0.076967
41.298901 27.970100 14.351000 21 21 21 -0.989280 0.028867 0.143149
41.271099 26.755501 15.693100 55 55 55 -0.996788 -0.047555 0.064432
41.327202 26.865101 16.396700 63 63 63 -0.995943 -0.036378 0.082307
41.469398 28.158701 18.808800 82 82 82 -0.995375 -0.032564 0.090374
41.794399 26.790100 22.275101 67 67 67 -0.999178 -0.038769 -0.011846
41.831299 26.813601 22.670700 66 66 66 -0.999467 -0.031499 0.008597
42.059299 26.812901 25.496799 62 62 62 -0.996137 -0.042173 0.077029
42.132099 26.785700 26.417000 57 57 57 -0.992288 -0.003914 0.123896
42.311600 26.823099 28.743700 57 57 57 -0.999627 -0.017498 0.020951
42.583801 26.764700 32.025200 50 50 50 -0.998318 -0.041058 0.040941
42.593399 26.770599 32.388599 47 47 47 -0.995595 -0.040125 0.084742
41.816898 29.330299 4.567920 24 24 24 -0.245691 -0.547299 0.800062
41.246899 30.506300 7.740540 16 16 16 -0.739746 -0.441848 0.507490
41.245300 29.470800 10.879100 23 23 23 -0.857967 0.268666 0.437848
41.239899 28.765301 16.285000 73 73 73 -0.996557 -0.033920 0.075648
41.262100 28.935400 16.639500 66 66 66 -0.996968 -0.034527 0.069729
41.459599 28.765800 18.936501 62 62 62 -0.995206 -0.035289 0.091209
41.730999 28.796700 22.180700 55 55 55 -0.998141 -0.058849 0.015886
41.735001 28.877600 22.411400 65 65 65 -0.998986 -0.044931 0.002734
41.981998 28.967800 25.515800 57 57 57 -0.994510 -0.036754 0.097972
42.095200 28.807899 26.380100 60 60 60 -0.992469 -0.039162 0.116071
42.226799 29.054600 28.711399 54 54 54 -0.994522 -0.036905 0.097800
42.482498 29.701000 32.061401 58 58 58 -0.996937 -0.035292 0.069792
42.470501 30.254499 32.372799 45 45 45 -0.997187 -0.031424 0.068041
41.924702 31.420500 -2.034480 9 9 9 -0.185723 -0.981095 0.054409
42.741299 32.366299 7.937720 25 25 25 0.234313 -0.971222 0.042731
42.765400 32.384201 8.630470 26 26 26 0.187225 -0.981012 -0.050627
42.965900 32.450600 11.693400 22 22 22 0.128169 -0.974328 0.185091
41.241299 32.215698 15.126400 68 68 68 -0.943377 -0.330205 -0.031691
41.240002 30.817400 16.515301 56 56 56 -0.985368 -0.007023 0.170296
41.408501 30.941999 18.977100 49 49 49 -0.998719 -0.015744 0.048081
41.666599 30.809099 22.186600 27 27 27 -0.996838 -0.039795 0.068774
41.693001 30.828199 22.662600 41 41 41 -0.996149 -0.036396 0.079759
41.921299 30.750401 25.479601 42 42 42 -0.995213 -0.032875 0.092031
41.985500 31.123400 26.428499 58 58 58 -0.997105 -0.027536 0.070878
42.180500 30.855600 28.714100 40 40 40 -0.996161 -0.035927 0.079825
42.432800 30.874800 32.040298 42 42 42 -0.996066 -0.033012 0.082236
42.458000 30.893000 32.420300 37 37 37 -0.997557 -0.033918 0.061078
41.292198 32.757000 16.070499 24 24 24 -0.495714 -0.865822 0.067972
41.391800 32.751202 17.274599 27 27 27 -0.523498 -0.844325 0.114303
41.257401 32.986000 18.625900 52 52 52 -0.483959 -0.869429 0.099383
41.310699 33.027500 20.384001 49 49 49 -0.527726 -0.845871 0.077509
42.270802 32.755299 28.141199 50 50 50 -0.992904 0.105479 0.054922
42.302299 32.779499 28.590500 49 49 49 -0.993605 0.101352 0.049765
42.483799 32.750599 30.907400 44 44 44 -0.989052 0.124010 0.079986
42.450401 75.796097 28.329700 22 22 22 0.367143 -0.930149 -0.005409
41.656898 75.487198 28.569000 20 20 20 0.379496 -0.925165 -0.007224
42.612499 75.859703 30.708000 7 7 7 0.374281 -0.927289 -0.006923
43.274101 12.616400 -0.513330 16 16 16 0.036599 -0.994320 0.099940
43.294201 12.443800 2.980840 44 44 44 0.003042 -0.976649 -0.214821
43.272900 12.496100 4.386270 32 32 32 0.038001 -0.998906 0.027246
43.583199 12.525700 6.396910 37 37 37 0.032535 -0.999406 0.011323
43.459499 12.607600 9.577690 84 84 84 0.029195 -0.999372 0.020075
43.929001 12.623600 10.366100 37 37 37 0.032240 -0.999017 0.030408
43.243301 12.660900 12.748400 45 45 45 0.036903 -0.999054 0.023020
43.380299 12.700200 14.397000 44 44 44 0.032953 -0.999211 0.022148
43.309399 12.737500 16.388300 38 38 38 0.034530 -0.999317 0.013158
43.413502 12.776000 -3.161900 14 14 14 -0.012835 -0.998807 -0.047105
43.419899 13.133300 1.535970 4 4 4 0.082862 -0.981667 -0.171653
45.231300 14.113400 8.985260 39 39 39 0.133985 -0.303607 -0.943330
44.781300 12.807000 13.952200 17 17 17 0.055627 -0.996047 0.069249
43.361900 12.753400 15.579400 8 8 8 0.036042 -0.999339 -0.004810
43.382999 12.759100 16.610901 42 42 42 0.032704 -0.999191 0.023428
43.424702 12.830000 19.180099 19 19 19 0.037545 -0.999227 -0.011642
43.242100 12.834700 21.818800 35 35 35 -0.056591 -0.995639 0.074169
43.293598 12.849700 22.405600 35 35 35 -0.067752 -0.995251 0.069892
43.365299 12.929100 25.487801 80 80 80 -0.188503 -0.975403 0.114257
43.419601 12.944600 26.656000 41 41 41 -0.183586 -0.982555 -0.029702
43.387798 12.992400 29.219400 51 51 51 -0.250095 -0.961310 0.115476
43.387501 13.049100 32.200500 7 7 7 0.105152 0.446669 -0.888499
43.855701 13.071200 32.383499 39 39 39 -0.080693 0.249617 -0.964977
44.778999 16.679600 4.933900 44 44 44 -0.195301 -0.328516 -0.924086
43.414799 15.363900 15.723600 15 15 15 -0.256863 -0.471559 -0.843595
43.305698 15.195000 25.539200 40 40 40 -0.531521 -0.008212 -0.847005
43.276901 16.045300 28.777201 40 40 40 -0.670462 0.122336 -0.731788
43.350899 15.207000 32.074501 36 36 36 -0.831018 0.028046 -0.555538
43.373001 17.221600 5.582780 18 18 18 -0.162234 -0.264099 -0.950753
43.792702 17.385799 11.821700 11 11 11 0.009451 -0.979703 -0.200231
43.706001 18.623600 25.392401 20 20 20 -0.435542 0.159815 -0.885868
43.405300 20.400499 11.603400 17 17 17 -0.036201 -0.999302 0.009264
43.320202 19.110500 25.427299 34 34 34 -0.548234 -0.139227 -0.824655
43.369400 19.130400 28.690800 43 43 43 -0.639990 0.003857 -0.768373
43.777901 22.357000 2.208800 21 21 21 -0.049357 -0.476385 -0.877851
44.966301 20.867901 8.871020 40 40 40 -0.092431 -0.942854 -0.320129
43.330002 23.240499 1.664860 8 8 8 -0.091501 -0.330541 -0.939346
43.335701 23.452900 11.667900 18 18 18 -0.035343 -0.997423 -0.062443
43.361401 22.763800 15.058200 7 7 7 -0.161376 -0.881898 -0.442960
43.973000 25.916000 -3.774190 17 17 17 -0.078663 -0.996520 0.027576
43.310699 25.893101 -3.425310 15 15 15 -0.099228 -0.988912 0.110486
43.716400 25.986799 1.243940 1 1 1 0.019556 -0.294485 -0.955456
43.459702 26.354200 4.981860 28 28 28 -0.294926 0.008870 -0.955479
43.979401 26.511101 11.687200 21 21 21 0.034768 0.038881 -0.998639
43.601398 28.504200 4.808750 19 19 19 -0.161261 -0.254723 -0.953473
44.697498 27.482901 8.612640 43 43 43 0.035769 -0.999319 -0.009087
44.886700 29.835600 -2.579810 6 6 6 -0.164587 0.030617 -0.985887
43.298801 29.408199 4.808580 21 21 21 0.000219 -0.115941 -0.993256
43.534199 29.565100 11.470200 20 20 20 -0.186931 0.190216 -0.963781
44.275799 30.974100 -2.288690 21 21 21 -0.052953 -0.003004 -0.998592
43.949902 32.420300 8.257700 24 24 24 0.172538 -0.981550 0.082400
43.958500 32.426601 8.398010 25 25 25 0.162020 -0.985254 0.055000
47.063900 -7.470650 -1.114700 15 15 15 -0.276760 -0.683716 0.675231
47.048100 -7.224840 -1.110460 50 50 50 -0.198565 -0.836248 0.511137
45.918499 -4.651740 3.338110 4 4 4 -0.386393 -0.885079 0.259490
45.902699 10.122600 7.173790 255 255 255 0.047686 -0.339483 -0.939403
45.412498 12.683100 -0.646581 16 16 16 0.129781 -0.988159 0.081851
45.464199 12.514500 2.712930 40 40 40 0.041783 -0.998934 0.019607
45.315201 12.594200 6.133660 24 24 24 0.033720 -0.999345 0.013157
45.285400 12.585900 6.370010 36 36 36 0.057665 -0.991183 -0.119290
45.256500 12.636100 9.019010 40 40 40 0.035280 -0.998942 0.029509
45.384602 12.671300 10.402400 46 46 46 0.030940 -0.999474 0.009743
45.385899 12.731500 12.394900 50 50 50 0.031461 -0.999047 0.030251
46.324501 12.816600 -3.414410 59 59 59 0.066530 -0.997464 0.025278
45.919102 13.076200 0.305203 8 8 8 -0.046096 -0.964069 0.261624
45.296799 13.020500 0.393078 11 11 11 -0.009195 -0.938155 0.346093
46.090099 12.871400 2.409400 64 64 64 -0.031210 -0.930987 -0.363715
46.380100 14.473300 5.160120 75 75 75 -0.951536 -0.144273 -0.271596
45.238499 14.241400 8.964490 28 28 28 0.135557 -0.291311 -0.946975
46.165798 12.767100 12.126500 37 37 37 0.032019 -0.999460 0.007392
45.341099 12.781300 12.374500 13 13 13 0.025289 -0.999012 -0.036546
45.459202 12.812900 15.961800 69 69 69 0.034324 -0.999211 0.019982
45.318802 12.836600 16.425900 27 27 27 0.040162 -0.998418 0.039354
45.450401 12.872500 19.047199 5 5 5 0.032538 -0.999307 0.018067
45.399300 12.918800 22.115801 57 57 57 0.034480 -0.998909 0.031484
45.262901 12.940500 22.402500 75 75 75 0.029279 -0.999568 0.002715
45.252899 12.996500 25.743401 37 37 37 0.033317 -0.999368 0.012414
45.247101 12.994200 26.747499 14 14 14 0.030803 -0.999496 -0.007695
45.480499 13.060000 29.050301 41 41 41 0.039577 -0.999098 0.015386
45.439201 13.108100 31.860901 32 32 32 0.030377 -0.999364 0.018676
45.238602 13.111900 32.407001 27 27 27 -0.052779 -0.996831 0.059518
46.339298 14.782400 4.908000 57 57 57 -0.890247 -0.206615 -0.405919
45.287399 19.923901 -2.432050 10 10 10 0.026223 -0.997988 0.057729
45.664001 19.947800 -1.607440 16 16 16 0.052338 -0.993342 -0.102623
46.388500 26.018900 -3.654050 4 4 4 0.040056 -0.998970 0.021327
45.275600 25.993401 -2.336150 8 8 8 0.038256 -0.999204 0.011316
47.961899 -4.554730 1.896490 4 4 4 -0.501843 -0.733381 0.458591
47.614498 8.945260 -0.507587 19 19 19 0.049540 -0.998769 -0.002313
48.442402 12.616200 2.356480 50 50 50 0.021742 -0.999763 0.001177
47.355202 12.585300 2.802020 34 34 34 -0.038145 -0.980005 -0.195285
47.297901 12.634700 5.632200 33 33 33 0.036171 -0.999013 0.025791
47.392300 12.659600 6.392560 31 31 31 0.034604 -0.999306 0.013779
47.425301 12.732400 8.844600 27 27 27 0.030731 -0.999528 -0.000108
47.726898 12.747300 10.590400 17 17 17 0.038499 -0.999194 0.011324
48.043900 13.029400 -3.286390 43 43 43 0.073288 -0.996608 -0.037447
47.247601 12.875400 -0.908509 42 42 42 0.067799 -0.996410 -0.050692
48.449200 13.201900 1.905620 127 127 127 0.053806 -0.868001 -0.493639
47.304199 12.762700 8.941000 3 3 3 0.026266 -0.998734 -0.042896
47.685101 12.801000 12.001100 85 85 85 0.037333 -0.998854 0.029941
47.249901 12.808200 12.523300 32 32 32 0.036639 -0.999174 0.017550
47.239300 12.866600 15.972800 32 32 32 0.034900 -0.999103 0.023984
