ply
format ascii 1.0
element vertex 722
property float x
property float y
property float z
property uchar red
property uchar green
property uchar blue
property float nx
property float ny
property float nz
end_header
2.340570 -12.872100 77.576599 10 10 10 0.109505 0.993974 0.004906
2.854360 -12.837800 79.579399 10 10 10 -0.407725 0.858334 -0.311485
2.467680 -13.413300 94.236900 56 56 56 0.325556 0.940252 -0.099693
2.498790 -13.217500 96.356903 49 49 49 0.328668 0.944354 -0.013146
2.489400 -13.260600 97.790604 79 79 79 0.325898 0.938485 -0.114179
2.521590 -13.075700 99.301804 35 35 35 0.323999 0.945903 -0.017067
3.253160 -13.108900 101.515999 40 40 40 0.291385 0.942714 -0.162438
3.206990 -13.139400 103.417000 48 48 48 0.201422 0.978871 -0.035237
2.278770 -10.801200 -1.452180 50 50 50 -0.456939 0.822106 0.339630
2.282040 -10.956100 0.145723 3 3 3 -0.442735 0.896653 0.000213
2.326590 -10.830600 1.740500 28 28 28 -0.213577 0.963881 -0.159115
2.276700 -11.006800 3.892770 3 3 3 -0.441178 0.887811 0.130971
2.285670 -10.983600 5.091160 4 4 4 -0.562838 0.826558 -0.003900
2.277890 -10.952700 7.476670 1 1 1 -0.518768 0.854693 -0.019480
2.289150 -12.504000 10.904400 26 26 26 0.181644 0.951672 0.247642
2.283170 -12.472600 11.241400 54 54 54 0.046474 0.960603 0.274010
2.522340 -12.619300 13.295800 50 50 50 0.362340 0.880050 -0.306956
2.336170 -12.690900 51.060299 11 11 11 0.155586 0.984565 -0.080150
2.300030 -12.674700 51.092701 7 7 7 0.191908 0.978210 -0.079227
2.433190 -12.687700 53.826801 63 63 63 0.059642 0.993328 0.098704
2.319280 -12.699600 55.198601 7 7 7 -0.336852 0.940164 -0.051216
2.517240 -12.621700 57.942200 7 7 7 -0.255081 0.966329 -0.033801
2.485370 -12.467100 59.330502 34 34 34 -0.057572 0.997442 -0.042360
2.299100 -12.521600 62.834999 74 74 74 0.422192 -0.874585 -0.238442
2.309580 -12.579500 63.545502 99 99 99 -0.678325 0.719437 -0.149282
2.385570 -12.639800 65.621696 53 53 53 -0.502881 0.855468 0.123631
2.462190 -12.615100 67.707901 48 48 48 -0.526015 0.849692 -0.036491
2.530120 -12.629800 69.788101 48 48 48 -0.622182 0.782850 0.005960
2.628730 -12.551600 71.142799 65 65 65 -0.646547 0.761016 -0.053217
2.709670 -12.550100 73.213203 48 48 48 -0.587594 0.809106 -0.008986
2.787210 -12.604400 75.318100 52 52 52 -0.651506 0.751951 0.100547
2.305940 -12.684000 77.631203 11 11 11 -0.061331 0.997696 -0.028993
2.434570 -12.671400 79.630096 2 2 2 -0.087164 0.994851 -0.051708
3.023370 -12.697900 82.220596 12 12 12 -0.528278 0.844284 -0.090038
3.268400 -12.224000 83.579201 61 61 61 0.322466 -0.909892 -0.260983
3.141670 -12.671800 104.117996 9 9 9 0.047321 0.986548 -0.156475
2.285570 -10.699900 -1.459260 52 52 52 -0.428345 0.617983 0.659255
2.767910 -10.701100 0.239441 12 12 12 -0.383044 0.910518 -0.155674
2.379810 -10.685400 1.797950 103 103 103 -0.386713 0.903564 -0.184458
2.736100 -10.700500 6.647260 2 2 2 -0.484816 0.874616 -0.000922
2.506840 -10.699100 8.194220 56 56 56 -0.471363 0.873916 -0.118689
2.506150 -10.699200 9.345250 133 133 133 -0.479285 0.850470 0.216762
2.395630 -7.358080 -1.230730 5 5 5 0.127255 -0.115668 0.985102
2.366780 -8.654810 0.547888 74 74 74 -0.221390 0.283029 -0.933210
2.472240 -8.455610 2.426580 73 73 73 0.053750 0.337121 0.939926
2.456820 -7.211110 3.120540 41 41 41 0.654619 0.377206 -0.655126
2.399280 -5.772300 -1.020000 3 3 3 0.564875 0.427630 0.705726
2.508500 -6.540760 0.241825 49 49 49 0.807309 0.395812 -0.437705
2.317490 -6.504280 1.497050 39 39 39 0.091307 0.703528 0.704777
2.277680 -6.552310 4.044910 77 77 77 0.188918 0.114234 -0.975326
2.416190 -5.821150 5.648410 11 11 11 -0.882079 0.470674 0.020078
3.403280 -5.453710 7.825180 43 43 43 -0.188827 0.967721 0.166916
2.340200 -4.488290 -1.294700 9 9 9 0.692153 0.231953 0.683464
2.431430 -4.471680 1.738550 27 27 27 0.110310 0.261166 -0.958970
2.504590 -4.663190 3.172610 16 16 16 -0.985609 0.063946 0.156482
2.512110 -3.588950 5.170730 14 14 14 0.744123 0.608356 -0.276016
4.172360 -4.289630 7.322600 58 58 58 0.582370 0.759428 -0.290025
2.282660 -2.699380 -2.016940 25 25 25 0.115532 0.028344 0.992899
2.567310 -1.363530 -0.455782 0 0 0 -0.788394 -0.435722 -0.434259
2.996490 -2.619890 1.775460 29 29 29 -0.388987 -0.474763 -0.789486
3.707760 -2.464580 3.403080 31 31 31 -0.857718 -0.340740 0.384989
2.421800 -0.658646 -1.620810 0 0 0 0.084007 -0.657279 0.748951
2.315790 -0.374010 -0.806811 7 7 7 -0.478391 -0.748199 0.459717
2.324120 1.299950 -2.018540 28 28 28 -0.040462 0.433543 0.900224
2.324170 3.300900 -2.076670 24 24 24 0.010959 0.012158 0.999866
2.468580 5.312490 -2.120800 25 25 25 0.009179 0.037740 0.999245
2.324130 7.303640 -2.214770 22 22 22 0.053147 -0.011741 0.998518
2.316640 9.304590 -2.120470 33 33 33 0.119502 -0.043882 0.991864
2.822930 10.332100 -0.903052 138 138 138 0.602884 -0.793141 -0.086368
2.681680 12.199100 -2.115090 14 14 14 -0.119218 0.194783 0.973574
3.029060 11.367500 -0.831610 2 2 2 -0.981017 -0.160151 -0.109345
2.653060 13.341500 -2.178790 15 15 15 -0.237059 0.033597 0.970914
3.444590 14.692200 0.132968 8 8 8 0.068910 -0.997193 0.029290
2.901640 14.680700 1.742100 255 255 255 0.169008 -0.984290 0.051090
4.018590 14.925100 3.093870 3 3 3 0.129311 -0.991172 0.029270
4.160630 14.997400 5.329140 2 2 2 0.195279 -0.978897 0.060229
3.006460 16.294201 -2.262880 21 21 21 -0.924575 -0.347163 0.156969
3.499930 15.542400 0.288041 2 2 2 -0.942275 -0.334011 -0.023533
2.275680 17.794399 -1.711920 157 157 157 -0.554669 -0.364579 0.747947
2.435230 22.928600 -2.701450 0 0 0 -0.068108 0.113575 0.991192
2.337770 42.023300 -2.726840 91 91 91 0.900029 -0.075600 0.429222
2.681110 43.300800 -2.745090 84 84 84 -0.223311 -0.253649 -0.941166
3.998020 47.217201 -2.557670 182 182 182 -0.582173 -0.488008 -0.650325
3.746350 47.823200 -2.481880 255 255 255 -0.603531 -0.420182 -0.677641
4.227160 66.852898 0.243026 12 12 12 -0.921837 -0.382515 0.062445
3.243660 69.268799 0.591414 11 11 11 -0.920604 -0.384019 0.070834
3.504290 69.256599 3.878120 23 23 23 -0.920597 -0.386368 0.056750
3.748330 68.864304 5.136170 26 26 26 -0.919707 -0.387559 0.062748
3.005420 69.797096 0.266620 11 11 11 -0.921261 -0.382789 0.068926
2.706230 71.158096 3.854500 25 25 25 -0.921704 -0.383743 0.056599
2.956820 70.744400 5.147980 20 20 20 -0.921765 -0.383778 0.055345
2.459140 71.757500 3.913590 22 22 22 -0.922346 -0.381820 0.059096
2.464410 71.899002 5.096480 21 21 21 -0.922182 -0.383833 0.047460
3.962580 72.785202 7.642150 23 23 23 -0.920348 -0.383773 0.075349
2.955600 75.225899 7.713550 21 21 21 -0.923093 -0.376915 0.076383
2.501080 75.857903 -3.518190 16 16 16 0.674074 -0.726663 -0.132609
2.505040 75.967300 -2.851110 14 14 14 -0.618078 -0.113601 0.777865
2.715200 76.453102 2.270390 23 23 23 0.438760 -0.897694 -0.040436
2.428360 76.500900 7.509510 19 19 19 -0.924015 -0.375992 0.069472
2.437680 76.778702 9.096690 21 21 21 -0.923827 -0.375744 0.073218
2.716720 89.314301 -3.407990 29 29 29 0.083076 -0.072846 0.993877
2.689670 92.241203 -3.899920 19 19 19 0.504486 -0.862844 0.031527
2.694160 92.379501 -2.856260 11 11 11 0.506751 -0.839696 0.195228
6.015100 -15.134800 16.713900 35 35 35 0.014764 0.842826 0.537984
4.275580 -16.067200 19.046200 6 6 6 -0.001963 -0.106833 -0.994275
4.369980 -15.937400 19.149401 97 97 97 -0.060136 -0.278913 -0.958432
4.320280 -14.958400 25.486799 6 6 6 0.611293 0.789886 -0.049000
4.359930 -14.820700 27.981800 7 7 7 0.789561 0.606500 -0.093548
4.433150 -13.352300 12.324700 43 43 43 0.230600 0.970491 -0.070501
4.342150 -13.303300 13.090500 124 124 124 0.215874 0.936075 -0.277780
4.580670 -14.531800 16.482599 77 77 77 0.188938 0.780241 0.596261
4.480020 -14.218000 19.076000 94 94 94 0.062297 0.259221 -0.963807
4.477130 -14.657100 19.098499 92 92 92 -0.038417 -0.020846 -0.999044
4.503700 -14.424300 21.972401 5 5 5 -0.261116 0.102631 -0.959836
4.492700 -13.723600 23.192200 1 1 1 -0.038682 0.993230 -0.109537
4.286070 -13.983100 26.009701 9 9 9 -0.781675 0.606961 0.143467
4.456210 -14.220200 28.032801 10 10 10 -0.812297 0.568474 0.130421
4.282270 -14.362800 30.237801 48 48 48 -0.372340 0.873939 -0.312399
4.281160 -14.493500 31.627001 68 68 68 -0.008953 0.999458 0.031667
4.291580 -14.466100 33.923901 47 47 47 0.240643 0.967787 0.074024
4.385240 -14.449100 35.107601 42 42 42 0.356740 0.933086 -0.045689
4.353470 -14.284500 37.098900 31 31 31 -0.098339 0.994858 0.024220
4.445360 -14.203700 39.168400 30 30 30 0.101915 0.994278 0.032018
4.492020 -14.107600 41.130901 25 25 25 -0.009063 0.993262 -0.115537
4.404050 -13.956400 43.094200 22 22 22 -0.081020 0.996575 0.016566
4.505440 -13.855500 45.196201 16 16 16 0.026473 0.998129 -0.055122
4.480580 -13.723700 47.143799 14 14 14 0.220932 0.972673 -0.071394
4.461370 -13.610500 49.131599 11 11 11 0.255311 0.965969 -0.041474
4.523610 -13.516200 51.222500 7 7 7 0.277535 0.959821 -0.041457
4.375730 -13.471300 53.698502 16 16 16 0.202921 0.978951 -0.021850
4.334860 -13.405100 55.134499 8 8 8 0.262407 0.963782 -0.047599
4.508760 -13.205400 57.267200 2 2 2 0.309940 0.950387 -0.026495
4.509930 -13.157900 59.254902 26 26 26 0.306729 0.951770 0.007137
4.406140 -12.966500 62.012100 22 22 22 0.334329 0.942396 0.010676
4.440140 -12.909600 63.422798 21 21 21 0.331521 0.941228 -0.064679
4.423510 -12.761500 66.182404 18 18 18 0.335835 0.940371 -0.054006
4.732630 -12.766300 67.548599 17 17 17 0.372661 0.927084 -0.040490
5.514140 -12.808400 69.657997 4 4 4 0.146995 0.983776 -0.102848
5.187280 -12.707600 71.677498 17 17 17 0.329504 0.941059 -0.076388
5.720960 -12.718300 74.445297 24 24 24 0.155935 0.984382 -0.081707
4.732940 -12.703500 94.087502 38 38 38 0.100102 0.992508 -0.070050
5.480560 -12.762100 96.891899 55 55 55 0.306327 0.951096 -0.039756
5.524690 -12.778400 97.597298 79 79 79 0.288321 0.947994 -0.134828
5.981080 -12.763300 99.891296 41 41 41 0.328897 0.940556 -0.084747
4.317810 -13.424400 103.019997 77 77 77 -0.273451 0.955483 0.110802
4.280870 -13.542600 103.760002 67 67 67 0.244723 -0.954816 -0.168633
5.434710 -12.682900 44.054901 46 46 46 0.445920 0.304548 -0.841668
5.505580 -12.676000 46.787899 23 23 23 0.509738 0.082152 -0.856398
5.645970 -12.564600 47.196098 11 11 11 0.395913 0.915379 -0.073032
5.713170 -12.506000 49.124901 7 7 7 0.535699 0.835545 -0.122027
5.764590 -12.663000 52.288399 80 80 80 0.550290 -0.267690 -0.790900
5.833500 -12.689100 53.642200 62 62 62 -0.615233 0.782530 0.095580
5.904800 -12.677300 55.734402 32 32 32 -0.704873 0.698920 -0.121100
6.007240 -12.690200 57.107101 41 41 41 -0.752789 0.657741 0.026202
6.064290 -12.688200 59.174198 48 48 48 -0.682510 0.725380 0.089467
6.178010 -12.561700 61.249199 37 37 37 -0.748880 0.662011 -0.030355
4.277910 -12.698600 63.480999 52 52 52 0.302943 0.951738 -0.049192
4.341060 -12.677100 65.533997 10 10 10 0.321165 0.945810 -0.047927
4.440080 -12.657100 67.564102 33 33 33 0.348022 0.937446 -0.008695
4.473400 -12.455100 69.642899 14 14 14 0.296736 0.950960 -0.087311
4.278790 -12.405300 71.740601 20 20 20 0.309151 0.948207 -0.072995
4.472980 -12.313200 73.097397 44 44 44 0.323589 0.945667 -0.031674
4.309320 -12.056500 75.198799 26 26 26 0.313040 0.946688 -0.076072
4.411110 -12.102900 77.269798 36 36 36 0.320345 0.945477 -0.058764
4.364460 -11.886500 79.343002 31 31 31 0.298291 0.952562 -0.060406
4.412500 -11.791400 81.398201 37 37 37 0.249833 0.967073 -0.048517
4.419260 -11.723300 83.461601 65 65 65 0.053290 0.997786 -0.039778
4.430090 -12.615200 94.135399 34 34 34 -0.016979 0.995997 0.087755
4.325000 -12.419600 95.562302 79 79 79 -0.185967 0.972767 -0.138351
4.504310 -12.288000 97.686699 75 75 75 0.123806 0.955623 -0.267314
4.758440 -12.308400 99.135696 34 34 34 0.133843 0.990951 -0.010063
4.598770 -12.356500 101.406998 21 21 21 -0.427693 0.831405 -0.354746
4.962000 -12.069400 103.913002 26 26 26 -0.080747 0.944520 -0.318372
4.277790 -10.329000 -1.305920 25 25 25 -0.379094 0.925333 0.006747
4.278450 -10.367900 -0.908041 2 2 2 -0.190630 0.968988 0.157232
5.746500 -10.256200 1.092340 0 0 0 0.005244 0.998657 -0.051542
4.279300 -10.057300 8.697170 103 103 103 -0.319001 0.946058 0.056678
4.747640 -9.675250 11.751500 31 31 31 -0.823236 0.402267 0.400578
4.275080 -8.535950 -1.600570 44 44 44 -0.151278 0.018946 0.988310
4.305260 -7.106150 -0.908142 26 26 26 0.846376 0.529999 0.052434
4.309650 -8.092380 1.249310 43 43 43 -0.367165 0.164111 -0.915564
4.299370 -7.304960 3.104850 94 94 94 -0.938820 0.230273 0.256110
4.486130 -6.681830 -1.751430 27 27 27 0.212715 0.218179 0.952444
4.448680 -6.627720 0.990805 29 29 29 0.367876 0.874329 0.316571
4.450910 -6.559880 1.587290 30 30 30 0.348038 0.936113 0.050611
4.275880 -6.136410 4.045330 41 41 41 -0.226457 0.115559 -0.967142
4.462200 -5.229990 6.447640 33 33 33 -0.901307 -0.402929 0.159043
4.337170 -5.921880 7.520710 0 0 0 0.769580 0.132175 -0.624721
5.000940 -4.708920 9.145040 20 20 20 -0.588815 0.589605 -0.552868
4.280180 -4.691020 -2.018040 22 22 22 -0.011554 0.004228 0.999924
4.719730 -2.747320 -0.656880 4 4 4 -0.769526 0.406690 0.492375
4.288330 -4.678460 1.589150 61 61 61 0.068248 0.668516 -0.740559
4.405800 -4.594680 3.110330 33 33 33 -0.905159 0.417170 0.081586
4.477720 -4.624820 5.945620 41 41 41 -0.800774 -0.000230 -0.598967
4.689570 -4.666750 8.745080 37 37 37 0.194041 0.607183 -0.770505
4.681140 -4.201740 9.148350 10 10 10 -0.133606 0.509417 -0.850084
4.275220 -2.701110 -2.003490 23 23 23 -0.225773 -0.312016 0.922861
4.351530 -2.481980 -0.658211 1 1 1 -0.564725 -0.807139 -0.172085
5.731580 -2.693340 2.293150 22 22 22 -0.468400 -0.064414 -0.881165
4.970640 -2.690280 4.545440 14 14 14 0.169195 0.166872 -0.971353
4.295850 -0.343115 -0.644655 1 1 1 -0.470930 -0.439366 0.764972
4.316180 1.388720 -2.016490 22 22 22 0.085709 0.118166 0.989288
4.322960 3.299350 -2.070310 19 19 19 0.001251 0.029431 0.999566
4.313180 5.305500 -2.135110 22 22 22 0.006240 0.034735 0.999377
4.323830 7.307010 -2.218390 24 24 24 0.002226 0.046431 0.998919
4.310250 9.336010 -2.324900 29 29 29 0.070353 -0.098151 0.992682
4.522810 10.059300 -0.901995 174 174 174 -0.875406 -0.461143 -0.144953
6.023510 10.783300 4.452810 1 1 1 0.025016 0.040546 -0.998864
4.514970 11.872100 -2.114760 19 19 19 -0.200169 -0.157653 -0.966994
5.509780 12.045500 4.580110 0 0 0 -0.049858 0.031224 -0.998268
5.263310 13.786300 -2.375540 12 12 12 0.228400 0.007598 0.973538
4.445740 14.723800 4.845630 68 68 68 -0.642098 -0.764154 0.061471
4.275540 15.043400 5.140200 1 1 1 -0.142711 -0.989046 0.037710
5.922350 15.446700 3.783070 15 15 15 0.172767 -0.936236 -0.305963
5.257400 15.683800 6.347680 8 8 8 0.446432 -0.877089 0.177239
4.366100 18.951599 -2.520470 6 6 6 -0.056704 -0.191555 -0.979842
6.136330 21.602100 -1.073470 2 2 2 -0.026448 -0.419860 0.907203
6.114690 24.553900 -2.175860 0 0 0 -0.150077 -0.098395 0.983766
6.036660 26.807501 0.532216 5 5 5 -0.996162 -0.020407 -0.085115
5.903520 25.911501 1.599310 2 2 2 -0.881589 -0.381704 0.277675
6.202850 27.545500 0.581473 4 4 4 -0.974178 0.053581 -0.219333
4.452760 36.638100 -2.925010 5 5 5 -0.416938 -0.239343 0.876857
4.522820 36.460800 -2.842060 5 5 5 -0.301062 -0.174983 0.937413
5.506700 37.438400 -3.004970 6 6 6 -0.391669 -0.290925 0.872902
5.508530 37.450802 -2.910250 31 31 31 -0.380315 -0.272800 0.883709
5.257910 44.684101 -3.098150 16 16 16 -0.020910 -0.715180 0.698627
4.811050 45.289600 -2.568770 14 14 14 -0.123873 0.026861 0.991934
5.441300 46.244598 -3.677010 36 36 36 -0.449299 -0.726910 -0.519358
4.435600 46.174702 -2.614850 13 13 13 -0.559069 -0.638220 -0.529261
5.448850 60.720901 0.535264 68 68 68 0.246927 -0.969033 0.001234
5.391380 60.932598 1.134790 47 47 47 -0.083060 -0.995432 0.047072
5.617980 60.846901 3.569460 50 50 50 0.538597 -0.823740 0.177104
5.298830 61.640400 -0.055408 26 26 26 -0.767035 -0.635116 -0.091019
6.266130 62.709000 4.508350 29 29 29 -0.921814 -0.382404 0.063459
6.274650 62.793400 5.150460 30 30 30 -0.921920 -0.381845 0.065247
5.005620 64.922699 -0.035814 10 10 10 -0.925297 -0.374994 0.056610
5.261690 65.031303 3.961320 24 24 24 -0.922074 -0.381420 0.065560
5.481130 64.697502 5.151460 23 23 23 -0.921703 -0.382205 0.066209
4.516610 66.182404 0.490734 13 13 13 -0.922089 -0.383690 0.050335
4.483790 66.901100 4.011870 24 24 24 -0.920731 -0.383169 0.073726
4.496140 67.079697 5.123680 23 23 23 -0.920671 -0.384342 0.068165
4.342900 67.308899 4.339800 26 26 26 -0.920806 -0.384176 0.067272
4.350480 67.420998 5.114760 27 27 27 -0.920959 -0.383898 0.066765
5.505280 69.116501 7.432120 11 11 11 -0.924836 -0.378468 0.037948
5.742740 68.792397 9.134950 23 23 23 -0.921222 -0.382360 0.071771
4.753090 70.901199 7.486110 15 15 15 -0.920939 -0.385776 0.055205
4.999210 70.598099 9.141780 25 25 25 -0.920129 -0.383992 0.076891
4.520400 71.450302 7.660500 24 24 24 -0.919074 -0.386885 0.074986
4.456690 71.897301 9.150510 25 25 25 -0.920419 -0.383281 0.076970
4.397210 77.259598 2.598340 14 14 14 0.473468 -0.153462 0.867339
5.178480 75.786499 18.661400 11 11 11 -0.642286 -0.745574 0.177733
4.438790 77.990402 2.524650 16 16 16 0.468259 -0.204603 0.859576
4.521600 79.446800 1.971380 19 19 19 0.492998 -0.489004 0.719603
7.260340 -17.534100 1.777750 255 255 255 -0.635324 0.025064 -0.771839
6.843920 -15.544400 17.042900 0 0 0 -0.267164 0.900523 0.343047
6.353250 -15.985700 17.699100 105 105 105 -0.219716 0.972280 0.079976
6.506020 -14.732300 20.335100 2 2 2 0.164540 0.982420 0.088189
6.470320 -14.704100 21.829599 2 2 2 0.228970 0.847193 -0.479413
7.652950 -14.704900 23.096600 81 81 81 0.341455 0.938206 -0.056375
8.009220 -14.707200 25.109800 70 70 70 0.350707 0.934777 -0.056544
6.277400 -14.660400 18.994499 95 95 95 0.149535 0.543005 -0.826308
6.393610 -14.476800 19.328501 86 86 86 0.332112 0.833490 -0.441583
6.359410 -14.452500 21.798100 8 8 8 0.211780 0.940284 -0.266486
6.448680 -14.316400 24.497601 1 1 1 0.253631 0.945625 -0.203629
6.449360 -14.223700 25.878000 4 4 4 0.270376 0.960926 0.059312
6.307630 -14.102300 27.267401 2 2 2 0.304639 0.935238 -0.180345
6.356150 -13.977100 30.089899 4 4 4 0.267311 0.931127 -0.248089
6.523600 -13.881700 31.176001 21 21 21 0.308869 0.951103 -0.001657
6.469100 -13.769600 34.220402 5 5 5 0.338708 0.933807 0.115248
6.329540 -13.652200 35.626099 4 4 4 0.314584 0.888816 -0.333232
6.495840 -13.564200 38.339001 2 2 2 0.303866 0.892830 -0.332447
6.483020 -13.453200 39.756001 16 16 16 0.370105 0.925548 0.079898
6.497450 -13.355900 41.147999 27 27 27 0.310245 0.905391 -0.289854
6.463080 -13.203300 43.896900 9 9 9 0.279492 0.890784 -0.358312
6.413000 -13.061300 45.278801 19 19 19 0.206982 0.975224 0.078074
6.297630 -12.789100 47.138302 10 10 10 0.188572 0.973689 -0.127943
6.312630 -12.862000 49.441601 3 3 3 0.168251 0.957659 -0.233626
6.479280 -12.716700 52.197201 18 18 18 -0.029027 0.946440 -0.321572
7.005510 -12.820000 53.548801 27 27 27 0.223992 0.970649 0.087563
7.194340 -12.708100 56.329601 39 39 39 0.333339 0.941786 0.043871
7.457340 -12.759500 57.707802 11 11 11 0.332162 0.916714 -0.222042
7.751490 -12.708200 60.447800 8 8 8 0.333354 0.940682 -0.063183
6.293550 -12.717000 62.643002 54 54 54 -0.745529 0.666326 -0.013992
6.289550 -12.829800 63.340099 61 61 61 -0.743904 0.667387 0.034658
6.293620 -13.047000 65.427803 51 51 51 -0.737788 0.672148 -0.062337
6.336820 -13.012600 67.497902 47 47 47 -0.564370 0.824167 0.047268
6.396250 -12.971500 69.585701 30 30 30 -0.769388 0.632768 0.087440
6.523000 -13.063300 71.639999 56 56 56 -0.703168 0.693437 0.157162
6.456720 -13.016200 74.359398 8 8 8 -0.790670 0.580202 -0.195465
6.511390 -12.882500 75.150200 12 12 12 -0.003516 0.999733 0.022848
6.767920 -12.864200 77.193802 16 16 16 -0.616142 0.759370 -0.209108
6.636780 -12.735900 79.944901 8 8 8 0.052532 0.998617 -0.002281
6.439750 -13.292700 93.322800 27 27 27 0.314954 0.946537 -0.069804
6.469540 -13.063400 95.458397 59 59 59 0.333939 0.940657 -0.060411
6.469770 -13.107200 97.562103 82 82 82 0.324578 0.935738 -0.137997
6.518030 -12.960100 99.862099 37 37 37 0.316155 0.947171 -0.053984
6.993380 -12.843400 101.271004 26 26 26 0.288632 0.946965 -0.141240
7.232660 -12.894800 103.834999 34 34 34 0.119842 0.992793 0.000377
7.495360 -11.165100 -1.008810 0 0 0 0.474577 0.473443 -0.742043
7.274630 -10.719700 -0.351098 4 4 4 0.383557 0.921639 0.058878
6.296780 -12.669900 49.525600 66 66 66 0.050840 0.998705 -0.001703
6.407580 -12.694100 52.197800 15 15 15 -0.076747 0.949782 -0.303354
6.421210 -12.604500 53.581600 30 30 30 0.009542 0.997208 0.074060
6.409230 -12.352400 55.093601 23 23 23 0.220379 0.606104 -0.764245
6.306400 -12.269200 57.247700 2 2 2 -0.446348 0.893783 0.043884
6.277000 -12.483300 60.548599 61 61 61 -0.637262 0.770053 -0.030236
6.286030 -12.541700 61.935398 42 42 42 -0.663317 0.745851 0.060969
6.376370 -12.565900 63.325500 64 64 64 -0.648187 0.750112 -0.131092
6.425460 -12.546900 65.399101 59 59 59 -0.640052 0.768284 0.008572
6.467330 -12.630400 67.475601 49 49 49 -0.563194 0.824792 0.050306
6.502440 -12.700700 69.571098 41 41 41 -0.715579 0.690756 0.103938
6.623260 -12.662800 71.640503 67 67 67 -0.739183 0.672480 -0.037137
6.748810 -12.671500 73.695198 57 57 57 -0.733911 0.678155 -0.038471
6.842470 -12.506000 75.095497 55 55 55 -0.705758 0.704877 0.071086
6.339980 -12.664300 77.235703 6 6 6 -0.106459 0.989397 -0.098795
6.518960 -12.549800 80.006599 8 8 8 -0.011833 0.999670 0.022804
7.018040 -12.605400 81.308601 9 9 9 -0.312048 0.949472 0.033592
7.084420 -12.467100 83.428398 16 16 16 0.434364 -0.784465 -0.442654
6.455350 -12.679300 100.626999 80 80 80 0.338885 0.923742 -0.178485
7.132050 -12.679200 103.849998 22 22 22 0.067563 0.988477 -0.135458
6.280200 -10.395600 -1.015930 0 0 0 0.187429 0.931184 0.312678
6.302490 -10.403200 -0.668015 0 0 0 0.158489 0.977618 0.138360
6.277460 -10.018900 1.740210 97 97 97 0.600222 0.762225 -0.242376
6.293500 -8.696730 -1.552430 47 47 47 0.036122 0.178053 0.983358
6.447750 -8.367460 1.048810 52 52 52 -0.202961 -0.269125 -0.941477
6.436170 -6.607850 -1.750510 28 28 28 -0.008237 0.099007 0.995053
6.427120 -6.683410 0.897388 50 50 50 -0.307124 0.195098 -0.931457
6.278960 -5.728130 1.130680 22 22 22 -0.259103 0.056277 -0.964209
7.418500 -4.703090 4.031730 46 46 46 0.596870 0.768890 -0.229245
7.827860 -4.705220 5.553960 7 7 7 -0.507110 -0.861550 -0.023882
6.581440 -5.024430 8.192090 32 32 32 -0.271239 -0.898604 -0.344877
6.305650 -4.696220 -1.993150 25 25 25 -0.024727 0.010431 0.999640
6.952860 -2.777180 -0.902947 1 1 1 -0.466952 -0.879013 0.096390
6.327490 -4.603610 1.148980 28 28 28 -0.585349 0.344403 -0.733998
6.294460 -4.204350 3.287370 33 33 33 -0.976186 0.014135 0.216476
6.293910 -4.463250 7.047900 0 0 0 -0.195915 -0.848367 -0.491824
6.329350 -4.573040 7.743510 20 20 20 -0.019293 0.953120 0.301978
6.282030 -2.693790 -1.990970 23 23 23 -0.456703 -0.776756 0.433672
6.498640 -2.520320 -0.750560 1 1 1 -0.450776 -0.889921 0.069581
6.477040 -0.165877 -0.748584 1 1 1 -0.391911 0.483194 -0.782898
6.286660 1.841480 -2.037670 22 22 22 0.016959 0.028865 0.999439
6.543120 1.456280 6.273620 0 0 0 -0.671842 0.044173 -0.739377
7.495980 2.283330 7.174850 0 0 0 -0.767800 -0.443669 -0.462213
6.320440 3.318660 -2.075240 22 22 22 0.006371 0.033852 0.999407
6.313850 5.327910 -2.153000 22 22 22 0.019611 0.044685 0.998809
6.302260 7.309690 -2.251080 26 26 26 0.020803 0.041066 0.998940
6.283330 9.732240 -2.328740 16 16 16 0.006667 0.035325 0.999354
6.519570 9.687600 4.291870 4 4 4 -0.905172 -0.252176 0.342156
6.348760 11.304200 -2.367660 21 21 21 0.013111 0.037767 0.999201
6.450700 13.879200 -2.315510 8 8 8 0.071857 -0.028001 0.997022
6.314730 14.576000 4.596350 1 1 1 -0.056354 -0.759063 0.648574
6.650570 18.979300 -2.626930 0 0 0 0.093787 -0.185111 0.978232
6.422920 19.665199 -2.652700 0 0 0 0.103497 -0.211265 0.971934
6.627790 22.163601 -1.113830 3 3 3 -0.017099 -0.505589 0.862605
6.425990 24.733101 3.537700 0 0 0 -0.992837 -0.119385 0.004773
6.499650 24.504999 6.016670 1 1 1 -0.992097 0.058515 -0.110993
6.725920 26.863100 -1.533090 1 1 1 -0.995891 0.064630 -0.063429
6.765250 26.876301 -0.758946 1 1 1 -0.978311 0.091649 -0.185765
6.496920 25.399300 1.545500 1 1 1 -0.964576 -0.220178 0.145312
6.993390 26.777000 4.481090 2 2 2 -0.969866 0.172664 -0.171895
6.847910 25.950899 5.688590 2 2 2 -0.998693 -0.045913 0.022477
6.934600 25.620399 9.042620 1 1 1 -0.994218 0.087995 0.061549
6.945100 25.529100 9.920780 5 5 5 -0.979641 0.104039 0.171693
7.262090 29.004499 -1.618560 2 2 2 -0.133984 -0.234761 -0.962775
6.296510 45.163200 -1.177050 2 2 2 0.131073 -0.985930 -0.103743
6.782890 45.314499 -3.493700 7 7 7 0.117430 -0.990343 -0.073697
6.723620 45.308399 -2.123200 9 9 9 0.256843 -0.966277 0.018430
8.095750 45.459900 -0.482329 0 0 0 0.261551 -0.963215 -0.061703
8.023260 57.017899 -0.529101 55 55 55 -0.871876 -0.379237 0.309858
7.235280 58.911999 -0.575245 47 47 47 -0.920392 -0.382180 0.082565
7.993200 58.943199 1.993500 9 9 9 -0.897053 -0.384133 0.218491
6.516800 60.610199 -0.736356 41 41 41 -0.764076 -0.554916 -0.329022
6.326730 60.998901 1.129970 57 57 57 0.206245 -0.978418 -0.012679
6.330030 61.023499 3.518040 68 68 68 0.505556 -0.845588 0.171445
7.374810 61.314098 1.298960 32 32 32 0.333236 -0.942309 -0.031745
6.517740 62.075901 4.384340 28 28 28 -0.695106 -0.661098 0.282449
6.464890 62.319401 5.095710 26 26 26 -0.901823 -0.425613 0.074624
7.992250 63.090099 7.617940 19 19 19 -0.857614 -0.510163 0.065063
8.018470 63.293400 9.110210 28 28 28 -0.906946 -0.414609 0.074481
7.228980 64.892700 7.584510 18 18 18 -0.922101 -0.378210 0.081774
7.256950 65.139503 9.117690 34 34 34 -0.920873 -0.382927 0.073220
6.495510 66.694504 7.555660 15 15 15 -0.921818 -0.382553 0.062497
6.517040 66.910599 9.121850 25 25 25 -0.921740 -0.381942 0.067204
6.301030 67.308601 8.339450 19 19 19 -0.920550 -0.382526 0.079131
6.312550 67.427803 9.132760 28 28 28 -0.921000 -0.381964 0.076575
8.037710 67.523598 12.036500 12 12 12 -0.820373 -0.327216 0.468954
10.122400 -14.956700 -0.938380 1 1 1 -0.258344 0.189089 -0.947367
8.518710 -15.266800 19.053400 69 69 69 0.139778 0.970255 -0.197657
8.471630 -15.227100 19.103500 85 85 85 0.123661 0.972972 -0.195022
8.441800 -15.358000 21.095501 1 1 1 0.540875 0.826475 -0.156185
8.374540 -15.015000 24.433100 0 0 0 0.408125 0.899484 -0.156082
8.488210 -14.954100 25.827900 3 3 3 0.433897 0.900962 -0.000632
8.470730 -14.881300 27.231899 3 3 3 0.398055 0.904012 -0.155934
8.734180 -14.823400 29.978300 2 2 2 0.410543 0.884965 -0.219755
8.712250 -14.702800 31.356199 6 6 6 0.438700 0.898631 -0.001963
9.201600 -14.717500 34.094101 6 6 6 0.426524 0.903357 0.044978
9.321980 -14.704900 35.478401 3 3 3 0.390795 0.891187 -0.230358
9.959680 -14.792700 38.232399 6 6 6 0.451608 0.873825 -0.180221
10.241300 -14.806100 39.568001 15 15 15 0.486636 0.873157 -0.027980
8.919850 -13.179900 -0.806852 0 0 0 -0.407571 -0.003807 0.913166
8.285960 -14.685800 27.322001 65 65 65 0.361207 0.929658 -0.072560
8.290000 -14.566500 29.109900 58 58 58 0.378339 0.923360 -0.065319
8.320680 -14.453700 31.099199 52 52 52 0.343604 0.938061 -0.044470
8.467290 -14.374700 33.392101 44 44 44 0.341524 0.937507 -0.066642
8.305620 -14.223800 35.119701 42 42 42 0.331683 0.942349 -0.044314
8.324330 -14.056200 38.376099 41 41 41 0.313048 0.948012 -0.057221
8.432540 -14.038000 39.122101 41 41 41 0.329528 0.942789 -0.050591
8.452040 -13.912600 41.197701 40 40 40 0.309303 0.948420 -0.069504
8.450350 -13.757800 43.900700 38 38 38 0.325527 0.941584 -0.086327
8.297330 -13.586200 45.650299 17 17 17 0.316708 0.948256 -0.022493
8.382290 -13.459900 48.437801 12 12 12 0.320089 0.946936 -0.029244
8.394840 -13.480800 49.349098 38 38 38 0.322480 0.944849 -0.057165
8.461830 -13.403100 52.123901 21 21 21 0.362159 0.928069 -0.086764
8.400500 -13.270300 53.499199 35 35 35 0.350120 0.936231 -0.029787
8.345240 -13.039900 55.328499 4 4 4 0.303793 0.951948 -0.038795
8.334160 -13.060300 57.641602 9 9 9 0.327676 0.939542 -0.099445
8.376420 -12.842100 59.744499 3 3 3 0.302646 0.951496 -0.055334
8.398700 -12.808700 61.788399 7 7 7 0.300764 0.953627 0.011721
8.412150 -12.760300 63.189999 15 15 15 0.295644 0.953135 -0.064254
8.773560 -12.710400 65.952698 29 29 29 0.330068 0.941550 -0.067369
9.487460 -12.726300 67.432701 8 8 8 0.300128 0.953510 -0.027252
9.493280 -12.702600 70.042000 19 19 19 0.324170 0.945695 -0.023976
9.694240 -12.704000 71.434898 47 47 47 0.309142 0.949115 -0.060096
8.443440 -13.263500 96.077698 7 7 7 -0.009954 0.999939 -0.004877
8.526470 -13.284900 97.458900 9 9 9 0.021787 0.998621 -0.047772
8.725420 -13.191100 99.442398 9 9 9 0.011225 0.999930 0.003656
8.824640 -13.091200 101.190002 12 12 12 0.036956 0.996893 -0.069560
8.956290 -12.899600 103.487000 10 10 10 0.032715 0.989004 -0.144227
8.284350 -11.092200 -1.259730 58 58 58 0.443231 0.896049 -0.025344
8.516270 -11.675800 -0.509813 0 0 0 -0.880487 -0.469655 0.064553
8.712280 -11.103400 1.138940 15 15 15 -0.033816 0.998690 0.038396
8.292250 -12.679900 60.556801 15 15 15 0.306244 0.951952 -0.001348
8.285990 -12.671400 61.831699 68 68 68 0.308746 0.951073 -0.011661
8.395220 -12.699700 63.194199 56 56 56 0.303146 0.950170 -0.072658
8.502760 -12.587200 65.234802 11 11 11 0.338697 0.940223 -0.035558
8.344700 -12.457200 67.342697 32 32 32 0.303983 0.952305 -0.026641
8.361210 -12.216400 69.388298 24 24 24 0.331225 0.942018 -0.053778
8.515580 -12.309400 71.486603 15 15 15 0.345493 0.936929 -0.052891
8.411350 -12.063900 73.571800 18 18 18 0.312274 0.947980 -0.061797
8.423930 -11.955700 75.643402 48 48 48 0.286378 0.957850 -0.022592
8.391620 -11.755000 77.732597 24 24 24 0.272348 0.956817 -0.101621
8.504930 -11.756700 79.118599 22 22 22 0.285615 0.956512 -0.059233
8.301990 -11.602200 81.186996 36 36 36 0.078630 0.996715 -0.019430
8.524710 -11.572300 83.233498 95 95 95 0.055554 0.996114 -0.068349
8.783240 -12.611800 94.696899 39 39 39 0.147560 -0.893061 -0.425050
8.279310 -10.361700 -1.379730 19 19 19 0.167704 0.394972 0.903257
8.524340 -9.228300 0.485045 161 161 161 -0.411449 0.001031 -0.911432
8.283660 -8.656110 -1.553140 35 35 35 0.010488 0.111500 0.993709
8.376650 -8.409020 0.514659 100 100 100 -0.431129 -0.212672 -0.876869
8.303740 -6.686260 -1.721010 26 26 26 0.051594 0.096604 0.993985
9.012000 -5.459780 -0.503349 88 88 88 0.256664 0.935860 -0.241434
8.524100 -4.254620 -1.973140 21 21 21 0.031419 0.080805 0.996235
8.524500 -2.457760 -1.999980 19 19 19 0.038896 0.032234 0.998723
9.641680 -1.569220 -0.904642 8 8 8 -0.174774 -0.984436 -0.018430
9.950890 1.275870 4.246590 0 0 0 -0.209451 -0.378159 -0.901735
8.328530 2.337180 -2.103730 6 6 6 0.006147 -0.201991 0.979368
8.301980 2.567610 -0.909511 46 46 46 -0.534016 0.787418 0.307895
8.869610 3.289020 2.839540 28 28 28 -0.857614 -0.477286 0.191561
8.900850 3.249590 3.092280 72 72 72 -0.822730 -0.541276 0.173596
8.286710 3.313510 -2.116770 23 23 23 -0.035748 0.165413 0.985576
8.859800 3.298260 2.847790 54 54 54 -0.856512 -0.479319 0.191415
8.494830 4.733500 3.985890 10 10 10 -0.783832 -0.347048 -0.514942
8.468210 5.414990 -2.201310 19 19 19 0.022229 0.039256 0.998982
8.315800 7.308140 -2.282000 18 18 18 0.014368 0.035209 0.999277
8.312310 11.195700 -2.412230 38 38 38 0.016624 0.031955 0.999351
8.305950 11.304800 -2.390900 41 41 41 0.014986 0.036573 0.999219
8.318150 13.432400 -2.472630 37 37 37 0.019436 0.029624 0.999372
8.995970 21.433599 -1.633650 17 17 17 0.028734 -0.442098 0.896506
10.183900 32.413502 -1.951610 11 11 11 -0.011279 -0.341028 0.939986
9.429470 33.354599 -1.840300 0 0 0 -0.445151 -0.472282 0.760782
9.682040 35.256001 2.355890 2 2 2 0.303184 -0.852483 -0.425854
9.713390 35.725800 -0.195981 14 14 14 0.212533 -0.660918 -0.719734
9.343570 36.527901 2.412870 2 2 2 0.297346 -0.928515 -0.222362
9.216730 35.845501 3.176420 7 7 7 0.357945 -0.892160 -0.275548
9.617400 38.207001 -1.029370 7 7 7 -0.247029 -0.529386 -0.811620
8.743520 38.827999 0.870921 8 8 8 0.291923 -0.952066 -0.091382
8.615240 37.813702 2.382840 4 4 4 0.435359 -0.895752 -0.089953
9.821460 39.651299 -3.782980 22 22 22 0.312472 -0.229038 -0.921902
8.909900 39.566799 0.937206 8 8 8 -0.576481 -0.565451 -0.589860
8.485430 45.656399 -1.686410 55 55 55 0.216495 -0.975897 0.027462
8.298920 45.606098 -0.908058 255 255 255 0.269350 -0.962565 -0.030316
9.943550 52.399502 -0.614086 17 17 17 -0.880076 -0.352412 0.318234
10.242200 53.241001 1.106320 24 24 24 -0.984101 0.031549 0.174784
8.763920 55.216999 -0.633182 16 16 16 -0.918090 -0.272115 -0.288209
9.476340 55.219799 1.368640 17 17 17 -0.883082 -0.445033 0.148699
8.999680 55.371700 -3.263040 8 8 8 0.490979 -0.869577 0.052689
8.930160 55.377998 -2.642510 8 8 8 0.499240 -0.866268 0.018396
8.449650 55.963200 -0.601867 49 49 49 -0.806458 -0.557041 -0.198317
8.740350 56.925098 1.524540 32 32 32 -0.930913 -0.335687 0.143926
8.353950 57.795200 0.978720 17 17 17 -0.927508 -0.316790 0.198426
8.524050 57.431499 1.538760 39 39 39 -0.933675 -0.350890 0.071609
8.352720 62.178501 4.684150 36 36 36 0.377494 -0.925979 0.007849
8.438430 62.218102 5.346890 35 35 35 0.378762 -0.925406 0.012777
8.443340 62.250801 7.101300 38 38 38 0.287626 -0.941540 0.175426
8.384980 62.408600 9.104760 40 40 40 -0.470745 -0.765672 -0.438345
8.307810 67.610199 11.947100 12 12 12 -0.782504 -0.311688 0.539016
10.459700 -15.455000 -1.157860 2 2 2 -0.251128 0.409287 -0.877165
10.485600 -15.409000 -0.909723 2 2 2 -0.246746 0.282041 -0.927129
10.304500 -16.105400 24.368900 68 68 68 0.625735 0.769156 -0.129826
10.373600 -16.037600 25.777700 36 36 36 0.655474 0.754439 -0.034280
10.474400 -15.973500 27.169600 108 108 108 0.639449 0.765564 -0.070827
10.515200 -15.820800 29.937099 27 27 27 0.652961 0.751497 -0.094314
10.504400 -15.635700 31.316200 83 83 83 0.599569 0.799850 -0.027526
10.489100 -15.362800 33.106499 16 16 16 0.533910 0.845259 -0.021851
10.508000 -15.227800 35.486000 134 134 134 0.506740 0.858887 -0.074354
10.412400 -15.010300 37.240601 36 36 36 0.538956 0.840655 -0.053149
10.516300 -14.921000 39.387402 28 28 28 0.498357 0.863515 -0.077338
10.476200 -14.707600 41.109699 47 47 47 0.486422 0.873396 -0.023951
10.615000 -14.747600 43.732899 10 10 10 0.494932 0.861539 -0.113104
10.976300 -14.774100 45.114601 34 34 34 0.522873 0.849357 -0.072090
11.240100 -14.779200 47.876598 117 117 117 0.560642 0.826495 -0.050860
11.465700 -14.919800 49.250198 49 49 49 0.597055 0.799550 -0.065149
11.739900 -14.926200 52.006500 50 50 50 0.579926 0.810609 -0.081232
11.734500 -14.730400 53.384800 97 97 97 0.544865 0.836720 -0.054975
11.969200 -14.719900 55.131699 3 3 3 0.516397 0.853418 -0.070798
12.257100 -14.843800 57.483898 49 49 49 0.575734 0.814883 -0.067052
11.650700 -13.032200 -0.990898 32 32 32 -0.308304 -0.110467 -0.944852
10.281000 -14.512900 -0.613992 0 0 0 -0.292363 0.078665 -0.953067
10.288800 -14.678500 41.011902 112 112 112 0.466754 0.877301 -0.111731
10.412400 -14.657400 41.383099 21 21 21 0.468159 0.878376 -0.096347
10.459500 -14.647800 43.741100 20 20 20 0.491376 0.864788 -0.103398
10.511700 -14.566900 45.105000 21 21 21 0.504408 0.862856 -0.032440
10.438100 -14.277300 47.096298 13 13 13 0.440186 0.894744 -0.075297
10.508400 -14.261600 49.286499 64 64 64 0.467333 0.881004 -0.073704
10.427400 -14.116400 52.032200 11 11 11 0.410380 0.909358 -0.068234
10.379800 -14.016200 53.408699 18 18 18 0.381824 0.923675 -0.032162
10.411300 -13.768900 55.229099 8 8 8 0.435083 0.897816 -0.068038
10.424300 -13.787700 57.572300 12 12 12 0.368384 0.925281 -0.090270
10.469700 -13.671400 60.313202 6 6 6 0.352351 0.931579 -0.089497
10.475000 -13.537700 61.725201 32 32 32 0.385792 0.922411 -0.017962
10.488200 -13.451800 63.122398 20 20 20 0.394345 0.916679 -0.064743
10.280800 -13.154700 65.957603 10 10 10 0.351607 0.933555 -0.069625
10.327600 -13.078800 67.271896 2 2 2 0.359835 0.931968 -0.044202
10.373500 -12.839200 70.736801 3 3 3 0.327525 0.943370 -0.052722
10.494400 -12.856500 71.526497 9 9 9 0.334703 0.941495 -0.039510
10.514700 -12.751800 74.243301 5 5 5 0.333438 0.940780 -0.061248
11.271600 -12.989200 75.508598 30 30 30 0.360974 0.931457 -0.045674
11.271800 -12.731400 78.327698 30 30 30 0.364784 0.929031 -0.061913
11.457900 -12.811400 79.679398 31 31 31 0.355460 0.932374 -0.065788
11.725300 -12.720400 81.729797 17 17 17 0.376177 0.924550 -0.060808
12.005200 -12.731900 83.095802 75 75 75 0.411713 0.908291 -0.074162
11.211200 -13.266300 95.057999 40 40 40 0.208393 0.978019 -0.007182
10.469300 -13.313500 96.632202 21 21 21 -0.010104 0.999808 -0.016789
10.286000 -13.252900 97.313301 48 48 48 -0.010437 0.999528 -0.028908
10.359200 -13.280100 100.309998 25 25 25 -0.035630 0.996526 -0.075272
10.355200 -13.105700 101.665001 54 54 54 -0.031520 0.996394 -0.078778
10.326600 -13.104400 103.375000 43 43 43 -0.023960 0.999674 -0.008831
10.357200 -11.974100 -1.355370 108 108 108 0.249133 0.864096 0.437344
10.286200 -12.136800 -0.100709 9 9 9 -0.358463 0.932485 0.044450
10.432200 -12.684300 74.278702 11 11 11 0.330934 0.942293 -0.050671
10.390100 -12.539900 76.994202 1 1 1 0.325114 0.943013 -0.070904
11.243900 -12.667800 78.343201 13 13 13 0.365734 0.929397 -0.049604
10.318400 -12.359400 79.185402 0 0 0 0.307068 0.949958 -0.057344
11.472600 -12.510900 82.476997 22 22 22 0.374881 0.925105 -0.060365
11.457800 -12.463800 83.185204 14 14 14 0.373902 0.921437 -0.105598
10.657800 -9.009260 -1.546660 4 4 4 0.130740 0.068930 0.989018
10.674100 -10.475900 0.401074 47 47 47 0.239049 0.228087 -0.943839
10.448700 -7.681250 -1.701840 18 18 18 -0.040551 -0.183683 0.982149
10.492900 -7.101550 -0.610443 25 25 25 0.495465 0.868127 0.029488
10.450800 -6.677420 -1.809780 13 13 13 0.399354 0.610182 0.684247
10.307600 -4.699370 -2.004100 14 14 14 0.134650 0.181741 0.974084
10.495600 -2.700140 -2.054150 69 69 69 -0.076890 -0.276534 0.957923
10.405700 -1.828220 -0.905808 255 255 255 -0.308670 -0.942295 -0.129624
10.964000 -1.057760 4.596180 0 0 0 -0.440530 -0.147821 -0.885484
11.317900 -0.133208 -1.288280 1 1 1 -0.512434 0.285672 0.809817
11.640800 -0.253994 -0.838897 1 1 1 -0.447339 0.230075 0.864264
10.523500 -0.046623 4.443630 1 1 1 -0.343552 -0.312886 -0.885480
11.151600 1.992200 -1.363670 3 3 3 -0.201508 0.355027 0.912880
11.980700 2.046740 -0.015085 2 2 2 -0.920333 -0.382647 -0.081046
10.307200 3.445070 -2.176510 15 15 15 0.024084 0.031744 0.999206
10.376300 5.922420 -2.261840 15 15 15 0.018747 0.037205 0.999132
10.504800 8.227960 -2.370560 17 17 17 0.028336 0.037172 0.998907
10.509700 11.241000 -2.469820 23 23 23 0.026240 -0.001627 0.999654
10.512200 11.329200 -2.455060 64 64 64 0.023316 0.018779 0.999552
10.465700 14.281300 -2.544550 62 62 62 0.024933 0.034451 0.999095
10.444400 16.770800 -2.626210 0 0 0 0.036112 0.038573 0.998603
10.288700 17.999201 -2.654470 6 6 6 0.056651 0.046755 0.997299
12.087700 20.781099 -2.911660 1 1 1 -0.193870 -0.042807 -0.980093
10.953500 19.330299 -2.751100 11 11 11 0.096468 0.040230 0.994523
11.401900 30.907000 -3.082100 7 7 7 -0.261263 -0.522741 0.811470
11.354300 30.307501 -2.453460 70 70 70 0.095185 -0.089551 0.991423
11.693200 31.576700 -3.054300 8 8 8 -0.483346 -0.695918 0.531106
10.444200 32.669300 -2.533940 26 26 26 -0.072181 -0.230657 0.970354
10.361400 41.606602 -3.469960 7 7 7 0.226271 -0.139861 -0.963971
10.377700 41.671200 -2.879840 19 19 19 0.091551 -0.100730 -0.990693
11.475800 46.578300 -3.548650 29 29 29 -0.418033 -0.143131 0.897085
10.991400 49.109901 -3.600390 20 20 20 0.464951 -0.876079 0.127697
11.271700 49.198700 -0.505029 16 16 16 -0.779106 -0.298777 -0.551113
10.727000 49.376202 -3.117460 31 31 31 0.178230 -0.983654 0.025659
10.669000 49.409100 -2.881240 26 26 26 0.138046 -0.989357 0.045990
10.497800 51.095100 -0.476044 20 20 20 -0.780524 -0.479054 0.401610
10.727000 51.229599 3.055800 11 11 11 -0.859782 -0.345957 -0.375619
10.758500 51.062801 3.132180 5 5 5 -0.862592 -0.338156 -0.376278
11.133600 52.201801 -2.805300 9 9 9 -0.924501 -0.132364 -0.357460
10.407500 51.318401 -0.510776 18 18 18 -0.795798 -0.478094 0.371661
10.291800 53.136101 1.124810 26 26 26 -0.980287 -0.007149 0.197451
10.633900 51.423698 3.098890 8 8 8 -0.831695 -0.375277 -0.409208
11.206400 54.903099 -3.913380 12 12 12 -0.802626 -0.587236 0.104621
11.221900 54.977001 -2.858890 5 5 5 -0.866662 -0.485191 0.116130
10.997700 54.579700 1.048610 32 32 32 -0.199024 -0.369351 -0.907728
10.275200 53.409698 2.409690 20 20 20 -0.999889 0.009640 0.011331
10.347500 56.073299 -3.881370 6 6 6 -0.191677 -0.894882 -0.403046
10.356100 56.116600 -2.661290 8 8 8 0.166797 -0.984739 -0.049670
10.320300 62.980099 4.976720 38 38 38 0.377259 -0.926057 0.009744
10.408500 63.019001 5.328160 39 39 39 0.377704 -0.925820 0.014033
10.326800 63.015099 7.165460 34 34 34 0.381592 -0.924060 0.022387
10.514600 63.157001 9.097490 35 35 35 0.383147 -0.923108 0.032714
11.111100 63.305000 5.026230 35 35 35 0.379397 -0.925129 0.013921
11.112100 63.310699 5.105920 38 38 38 0.381694 -0.924229 0.010532
10.946400 63.299702 7.756600 37 37 37 0.384525 -0.922739 0.026322
10.953000 63.335300 9.155550 38 38 38 0.382025 -0.923789 0.025889
13.709700 -14.954400 0.317077 153 153 153 -0.268501 0.264675 0.926204
12.338300 -14.753500 59.584900 18 18 18 0.599064 0.798395 -0.060727
12.384500 -13.852800 -1.452070 4 4 4 -0.744008 -0.609153 0.274564
12.423900 -13.827900 -0.900898 25 25 25 -0.748753 -0.533490 0.393391
12.287800 -14.693500 59.597801 11 11 11 0.581475 0.811352 -0.059949
12.456100 -14.670900 61.622799 15 15 15 0.620287 0.782203 -0.058325
12.440800 -14.432400 63.092201 75 75 75 0.509897 0.858314 -0.057470
12.490700 -14.308700 65.805702 92 92 92 0.557946 0.826788 -0.071541
12.514200 -14.085900 68.579803 67 67 67 0.523300 0.849376 -0.068688
12.315000 -13.793300 69.915100 25 25 25 0.486360 0.871699 -0.059955
12.436900 -13.791400 71.311996 34 34 34 0.468435 0.881357 -0.061472
12.379300 -13.557000 73.418503 12 12 12 0.427500 0.903133 -0.039940
12.518800 -13.504400 75.460197 36 36 36 0.458664 0.886540 -0.060616
12.466600 -13.316500 78.206001 10 10 10 0.462643 0.884045 -0.066531
12.403900 -13.183800 79.626404 32 32 32 0.479762 0.874627 -0.069689
12.323700 -12.905700 83.066299 90 90 90 0.415046 0.907907 -0.058665
12.965700 -13.105600 83.095200 39 39 39 0.395936 0.913812 -0.090454
12.503900 -13.672900 94.366798 28 28 28 0.257081 0.965675 -0.037174
12.276800 -13.427800 97.174202 22 22 22 0.199769 0.979069 -0.038951
12.475000 -13.340200 100.224998 18 18 18 0.192221 0.980702 -0.035700
12.398900 -13.159700 101.545998 35 35 35 0.155848 0.981502 -0.111196
12.406600 -13.103200 103.259003 37 37 37 0.092505 0.995047 -0.036393
12.619000 -11.223900 -1.617520 3 3 3 -0.217576 0.748204 0.626778
12.303000 -12.257600 0.344555 140 140 140 -0.722149 -0.376978 0.579989
12.753200 -9.252970 -1.710670 10 10 10 -0.555884 -0.500552 0.663657
13.524600 -9.970210 0.682561 2 2 2 -0.651124 0.739754 -0.169710
13.731900 -8.775360 1.117960 255 255 255 -0.967765 -0.229410 0.103930
14.254000 -9.544800 4.049530 1 1 1 -0.951376 -0.287410 0.110813
14.226300 -9.552740 5.134900 10 10 10 -0.961241 -0.266052 0.072335
12.430100 -8.030080 -1.782350 19 19 19 -0.274023 -0.132211 -0.952592
13.983200 -8.166110 7.092430 7 7 7 -0.914623 -0.390822 0.103556
12.423200 -5.968820 -2.031630 15 15 15 0.066027 0.120496 0.990516
13.265700 -2.710640 -1.413660 9 9 9 -0.322921 -0.934498 -0.149783
13.393300 -2.736930 -0.908092 79 79 79 -0.298491 -0.954358 -0.010182
12.496400 -2.455520 -1.303790 27 27 27 -0.303650 -0.952637 0.016714
12.491100 -2.422020 -0.363631 88 88 88 -0.291997 -0.955721 0.036549
12.766500 -1.392030 1.479060 1 1 1 -0.302433 0.921313 -0.244371
12.841900 0.058722 -1.105090 2 2 2 -0.665302 0.028307 -0.746037
12.360800 -0.207884 -0.891087 0 0 0 -0.349361 0.171287 0.921199
13.037200 0.287610 2.985530 0 0 0 -0.630880 0.202041 -0.749113
13.397800 1.123170 3.134150 1 1 1 -0.510650 0.261546 -0.819042
12.628700 1.961930 -1.450950 1 1 1 -0.081964 0.341605 0.936263
12.706600 1.990130 -0.587267 1 1 1 -0.635456 0.318509 0.703383
12.675300 1.433170 1.721450 1 1 1 -0.896550 -0.187804 0.401158
12.767400 2.712230 3.144390 3 3 3 -0.400627 -0.095889 -0.911210
12.602500 4.142320 -2.261420 11 11 11 0.004380 0.401080 0.916033
12.287000 8.457420 -2.383430 35 35 35 0.019306 0.037935 0.999094
12.548100 10.998400 -2.461190 2 2 2 0.023483 0.055571 0.998179
12.297800 11.339200 -2.486670 42 42 42 0.026063 0.037193 0.998968
12.520500 13.978000 -2.604290 9 9 9 0.047993 0.041559 0.997983
12.442800 15.907200 -2.668990 5 5 5 0.052441 0.043377 0.997681
14.168800 18.206699 -2.915520 2 2 2 0.067883 0.059100 0.995941
12.390600 18.368799 -2.800830 2 2 2 0.063595 0.052188 0.996610
12.754200 20.537500 -2.941060 4 4 4 0.065924 0.054654 0.996327
12.434500 19.910000 -2.900610 1 1 1 0.065748 0.059397 0.996067
12.917000 22.015600 -3.036090 2 2 2 0.080440 0.052958 0.995352
12.842900 37.710400 -3.767520 6 6 6 -0.297274 -0.786492 0.541348
13.008100 38.989399 -2.600720 6 6 6 -0.407650 -0.645294 0.646078
12.854100 39.352501 -2.474580 48 48 48 -0.520495 -0.465655 0.715717
13.791100 42.952400 -3.548130 10 10 10 -0.237104 -0.965606 0.106710
13.747000 43.185200 -0.456317 22 22 22 -0.986639 -0.148287 0.067484
14.147300 42.942402 3.067410 13 13 13 -0.928794 -0.364370 -0.067648
14.005800 43.236900 3.601570 5 5 5 -0.917477 -0.384752 -0.101007
14.006200 43.622200 -3.545540 14 14 14 -0.796317 -0.602133 -0.057582
12.408000 43.680500 -2.285010 4 4 4 -0.065091 -0.981209 0.181638
13.018300 44.968800 -0.416949 19 19 19 -0.813269 -0.418574 0.404214
13.754800 44.759201 1.124710 18 18 18 -0.962217 -0.226542 0.151056
13.231000 45.270901 3.704760 9 9 9 -0.889659 -0.382526 -0.249362
13.371400 47.072300 -2.585750 2 2 2 -0.754863 -0.490351 -0.435589
12.764900 45.589500 -0.402311 28 28 28 -0.837594 -0.355636 0.414681
12.869700 46.864601 1.906980 43 43 43 -0.850819 -0.483436 0.205903
12.552500 45.483501 4.906330 7 7 7 -0.841037 -0.407757 -0.355515
13.772300 48.254398 -3.267010 44 44 44 0.027923 -0.181048 0.983078
13.846500 48.284698 -2.559310 255 255 255 -0.469692 -0.840571 0.269869
13.254600 47.335098 1.990670 24 24 24 -0.990568 -0.124453 -0.057333
12.748000 48.810902 8.231840 4 4 4 -0.922554 -0.343016 0.176730
12.802900 48.517899 10.831500 3 3 3 -0.934602 -0.338975 0.107772
12.281800 50.117001 -1.364360 116 116 116 0.426956 -0.867907 0.253861
13.932500 49.744999 10.466900 4 4 4 -0.896270 -0.313255 0.313960
12.306400 53.706600 4.718240 10 10 10 -0.865572 0.094000 0.491884
13.370100 55.775902 -2.234450 89 89 89 -0.078522 -0.467809 0.880334
12.362800 63.821899 5.363260 34 34 34 0.377534 -0.925845 0.016735
12.288400 63.863602 8.560340 36 36 36 0.380288 -0.924588 0.022782
12.477600 69.037498 12.195500 15 15 15 0.374074 -0.927313 0.012580
12.479400 69.045097 13.106900 18 18 18 0.381543 -0.924138 0.019821
12.675100 69.130997 15.104300 21 21 21 0.385338 -0.922217 0.032097
12.774600 69.181702 17.752100 30 30 30 0.411535 -0.911270 -0.015027
12.793500 69.277603 20.629200 12 12 12 0.401957 -0.914983 0.035162
13.251800 69.337402 12.266700 14 14 14 0.384625 -0.922387 0.035570
13.163400 69.341599 13.159500 16 16 16 0.383868 -0.922767 0.033857
12.977700 69.302399 16.242399 13 13 13 0.383960 -0.922232 0.045410
13.166800 69.348801 17.901400 37 37 37 0.398161 -0.917252 -0.010765
12.997400 69.396797 20.234600 10 10 10 0.369048 -0.927877 0.053365
13.190100 69.460800 23.026600 9 9 9 0.400042 -0.915453 0.043720
13.004300 69.426804 23.449400 14 14 14 0.384582 -0.922791 0.023517
13.505900 69.678398 26.896799 13 13 13 0.460245 -0.865976 -0.195602
13.509000 69.694000 27.106899 13 13 13 0.409831 -0.896483 -0.168395
13.720900 69.836502 30.450899 11 11 11 0.372582 -0.927381 0.033865
13.820500 69.873596 31.349100 18 18 18 0.391402 -0.919793 0.028016
13.935200 69.984200 34.583401 15 15 15 0.387224 -0.921977 0.004034
14.237100 70.125702 35.091000 11 11 11 0.377998 -0.925806 0.000162
13.938700 69.994003 37.282299 17 17 17 0.387212 -0.921031 0.042056
13.946400 70.027603 39.146301 15 15 15 0.401702 -0.915757 0.005008
14.247700 70.162201 41.110500 10 10 10 0.420389 -0.907246 0.013327
14.260300 70.216797 43.445000 16 16 16 0.402589 -0.915322 -0.010355
14.769500 -12.710100 -1.697750 14 14 14 -0.930434 -0.364938 0.033350
14.971100 -13.016200 -0.654289 87 87 87 -0.778180 -0.554539 -0.294827
15.853800 -13.032800 1.096030 3 3 3 -0.803229 -0.097449 0.587645
14.300300 -12.213400 -1.679030 4 4 4 -0.863482 -0.307730 0.399626
14.374800 -11.605100 -0.655218 12 12 12 -0.944501 -0.319986 0.074348
15.153900 -11.985700 1.944050 3 3 3 -0.840445 -0.448975 0.303436
