ply
format ascii 1.0
element vertex 715
property float x
property float y
property float z
property uchar red
property uchar green
property uchar blue
property float nx
property float ny
property float nz
end_header
14.808900 15.480500 33.288200 5 5 5 -0.718620 -0.692053 -0.068170
14.805600 15.436900 35.070000 17 17 17 -0.682936 -0.730446 0.006915
14.810300 15.478100 38.606800 2 2 2 -0.241188 -0.970297 0.018771
14.953100 15.430700 40.524700 6 6 6 -0.354851 -0.933749 0.046837
14.795500 15.459900 42.239300 4 4 4 -0.246707 -0.969073 -0.005807
14.798500 15.422900 44.127998 7 7 7 -0.278772 -0.960356 0.001636
14.909700 15.420300 45.835499 4 4 4 -0.258482 -0.965967 -0.009767
14.823900 15.368700 47.759300 9 9 9 -0.356251 -0.934346 0.009075
14.788200 15.369400 49.486801 15 15 15 -0.235981 -0.971346 -0.028280
14.821700 15.363900 51.334499 5 5 5 -0.267946 -0.963053 -0.027105
14.969400 15.206900 53.175701 1 1 1 -0.325506 -0.944819 -0.036917
14.856400 15.242400 56.728100 12 12 12 -0.207250 -0.978105 -0.018916
14.961500 15.233500 58.635201 4 4 4 -0.139329 -0.990228 0.005930
14.845900 15.229200 60.335201 11 11 11 -0.188169 -0.981443 -0.036896
15.025000 15.180000 62.199501 5 5 5 -0.158916 -0.987172 -0.015396
14.997500 15.228300 63.930599 18 18 18 -0.174911 -0.984580 -0.002984
14.982700 15.212000 65.781303 10 10 10 -0.108782 -0.994042 -0.006840
14.978300 15.244700 67.513901 14 14 14 -0.140308 -0.990108 0.000097
14.897000 15.121200 71.131302 9 9 9 0.281428 0.761826 -0.583454
15.075900 15.185100 74.698502 13 13 13 -0.081829 -0.996646 0.000172
15.838200 16.625999 -1.568130 11 11 11 -0.751123 -0.611039 0.249892
16.025400 17.781500 0.430527 5 5 5 -0.801934 -0.174115 -0.571477
14.985400 16.334299 2.065950 9 9 9 -0.808446 0.001373 0.588568
15.588300 16.279301 3.079890 35 35 35 -0.882445 0.041356 0.468594
15.496300 16.975000 6.282870 16 16 16 -0.997152 -0.074030 -0.014416
15.357000 16.319901 8.138370 20 20 20 -0.982285 -0.159834 -0.097823
15.281600 16.360901 9.902150 8 8 8 -0.997402 -0.071206 -0.010915
15.260600 16.255400 11.673300 2 2 2 -0.993014 -0.116271 0.020094
15.153700 16.386600 13.437700 10 10 10 -0.992936 -0.113096 -0.035872
15.036300 16.257700 15.426900 2 2 2 -0.974855 -0.130294 -0.180781
14.987400 16.284300 17.064501 11 11 11 -0.997317 -0.069860 0.021875
14.860000 16.266100 20.629101 8 8 8 -0.976056 -0.212694 -0.045573
14.831100 16.480900 22.469801 2 2 2 -0.989787 -0.127726 -0.063303
14.788900 16.810301 24.216000 3 3 3 -0.997840 -0.065289 -0.007291
14.823600 17.956600 26.082899 1 1 1 -0.995066 0.095204 -0.027920
16.271400 18.331800 -0.957225 1 1 1 -0.998268 -0.045308 -0.037533
16.270901 18.283600 0.988090 4 4 4 -0.693406 0.304075 -0.653243
14.823600 18.635500 2.022530 6 6 6 -0.627576 0.035988 0.777723
15.762200 18.257000 3.081600 39 39 39 -0.899103 0.007570 0.437671
15.644600 18.538900 6.224930 36 36 36 -0.995502 0.086132 -0.039465
15.518100 18.248501 8.167700 18 18 18 -0.994711 0.093732 -0.042003
15.488200 18.304800 9.808700 2 2 2 -0.995444 0.086770 -0.039525
15.391600 18.328100 11.637400 1 1 1 -0.995961 0.079974 -0.040808
15.274300 18.513599 15.035600 18 18 18 -0.995701 0.084018 -0.038999
15.284900 18.480000 15.159100 1 1 1 -0.995919 0.085156 -0.029904
15.161300 18.282700 17.063999 11 11 11 -0.995376 0.085009 -0.044713
15.008100 18.278799 20.676500 10 10 10 -0.995324 0.086341 -0.043307
14.980800 18.338600 22.475100 2 2 2 -0.995942 0.077694 -0.045413
14.910900 18.251301 24.179100 1 1 1 -0.995225 0.093477 -0.028109
14.856400 18.277100 26.089001 2 2 2 -0.995274 0.093402 -0.026551
14.845700 19.380800 27.834000 6 6 6 -0.995556 0.083992 -0.042579
14.792200 19.821100 29.713900 9 9 9 -0.995861 0.080945 -0.041341
15.423500 22.170401 -1.014760 0 0 0 -0.211331 -0.303150 0.929214
14.847100 20.452101 1.015530 1 1 1 -0.612405 -0.425078 -0.666535
14.821200 20.470200 1.071970 52 52 52 -0.584438 -0.396492 -0.707973
15.938900 20.297501 3.068470 35 35 35 -0.898155 0.159042 0.409906
15.778500 20.301399 6.331940 7 7 7 -0.995890 0.083142 -0.035909
15.741400 20.252399 8.088410 1 1 1 -0.996010 0.080303 -0.038928
15.642400 20.279699 9.817180 2 2 2 -0.995533 0.083339 -0.044369
15.532800 20.294399 11.886200 0 0 0 -0.996307 0.073802 -0.043885
15.537800 21.562099 14.389000 23 23 23 -0.997134 0.069029 -0.030976
15.443200 20.439501 15.289000 3 3 3 -0.995865 0.080950 -0.041236
15.285900 20.279499 18.882401 3 3 3 -0.995620 0.085931 -0.036833
15.282000 20.978800 20.585100 1 1 1 -0.994761 0.091795 -0.044999
15.127400 20.278200 22.517200 10 10 10 -0.995184 0.089522 -0.039941
15.028100 20.248400 24.295300 8 8 8 -0.995947 0.082691 -0.035369
14.961200 20.263201 26.135000 13 13 13 -0.995939 0.079893 -0.041494
14.917000 20.524700 27.862499 11 11 11 -0.995850 0.078460 -0.046109
14.834000 20.515900 29.732401 12 12 12 -0.996200 0.078711 -0.037285
14.788800 20.725401 31.450800 12 12 12 -0.995836 0.081541 -0.040774
14.789300 21.285000 33.324100 5 5 5 -0.994550 0.094639 -0.043740
15.327500 22.270800 -1.012410 3 3 3 -0.166227 -0.110733 0.979850
15.314100 22.310699 -0.918879 3 3 3 -0.440757 -0.897540 -0.012444
14.915300 22.446899 1.931360 30 30 30 -0.632341 0.114929 0.766118
16.104799 22.299900 3.139190 26 26 26 -0.766264 0.113856 0.632358
15.939500 23.154100 8.165220 17 17 17 -0.994161 0.099623 -0.041468
15.642400 22.294901 13.511200 11 11 11 -0.995919 0.082291 -0.037056
15.530900 22.251101 17.023800 3 3 3 -0.995574 0.084487 -0.041155
15.506400 22.335699 17.082399 11 11 11 -0.995935 0.081112 -0.039170
15.450700 22.984800 20.624901 2 2 2 -0.995088 0.090134 -0.040939
15.307600 22.462799 22.519199 8 8 8 -0.995230 0.088042 -0.042022
15.287500 22.737900 24.235901 3 3 3 -0.994841 0.094841 -0.036008
15.133300 22.262800 26.132799 11 11 11 -0.996215 0.076985 -0.040356
15.009700 22.686600 29.764500 11 11 11 -0.996357 0.075308 -0.040020
14.961900 22.488600 31.436899 6 6 6 -0.995088 0.089527 -0.042239
14.989900 23.941299 33.359402 9 9 9 -0.995495 0.085039 -0.041918
14.893400 24.186001 36.938599 3 3 3 -0.994554 0.095652 -0.041400
15.870800 25.170401 -1.628600 0 0 0 -0.662750 -0.656389 -0.360437
14.801100 25.860600 -0.667037 9 9 9 -0.870835 0.432454 0.233730
15.165800 25.014799 1.951410 4 4 4 -0.638991 0.081128 0.764924
16.270800 24.285801 3.161330 20 20 20 -0.918629 -0.074389 0.388055
16.167999 24.596001 6.265640 32 32 32 -0.993176 0.108955 -0.041589
16.074499 24.587601 8.150060 15 15 15 -0.994391 0.093573 -0.049299
15.987500 24.654699 9.817730 34 34 34 -0.995466 0.083667 -0.045247
15.979100 24.846800 11.770600 9 9 9 -0.994233 0.096616 -0.046532
15.693000 24.260099 17.044001 2 2 2 -0.994865 0.095228 -0.034269
15.668900 24.291000 17.088301 9 9 9 -0.996083 0.085645 -0.021996
15.537200 24.282600 20.620800 2 2 2 -0.995143 0.086925 -0.046205
15.474500 24.248899 22.531900 6 6 6 -0.994759 0.091844 -0.044938
15.476600 24.730801 23.528999 4 4 4 -0.995077 0.090421 -0.040572
15.242400 24.419399 27.913500 10 10 10 -0.995892 0.080481 -0.041508
14.976000 24.530300 34.445801 10 10 10 -0.995916 0.079575 -0.042659
14.859000 24.403500 36.968899 10 10 10 -0.996049 0.078810 -0.040937
14.792400 54.571499 -4.195090 62 62 62 -0.364446 -0.298483 -0.882092
14.950900 79.116997 -2.934120 23 23 23 0.060668 -0.622996 0.779869
15.260800 105.191002 -2.035410 64 64 64 -0.860896 0.061142 -0.505094
17.994900 -19.754499 8.207150 55 55 55 0.428884 0.903013 0.025011
18.028299 -19.791800 9.075840 57 57 57 0.430587 0.902270 0.022440
17.767500 -19.754601 12.961300 51 51 51 0.428653 0.903247 0.020026
17.771099 -19.758699 13.087100 52 52 52 0.429083 0.903060 0.019236
17.686600 -19.765800 15.088800 53 53 53 0.426784 0.904121 0.020504
17.496599 -19.756201 18.545900 44 44 44 0.433881 0.900730 0.020778
17.514200 -19.776600 19.164600 45 45 45 0.433281 0.901044 0.019674
17.502300 -19.815800 21.081301 41 41 41 0.429712 0.902722 0.020977
17.273199 -19.756201 23.342199 36 36 36 0.428082 0.903470 0.022113
17.942499 -18.121599 0.589290 11 11 11 -0.354724 -0.220599 0.908574
16.974600 -19.255899 7.677970 55 55 55 0.425049 0.904683 0.029692
16.957100 -19.284700 9.080330 56 56 56 0.425153 0.904867 0.021461
16.947001 -19.323000 11.070100 53 53 53 0.420940 0.906900 0.018517
16.864000 -19.329100 13.071800 49 49 49 0.428710 0.903249 0.018693
16.859600 -19.374500 15.071000 50 50 50 0.429160 0.902988 0.020831
17.013700 -19.504700 17.775801 47 47 47 0.430838 0.902193 0.020656
16.982500 -19.519400 19.105499 45 45 45 0.429825 0.902692 0.019941
16.977100 -19.564301 21.067400 44 44 44 0.429137 0.902990 0.021229
16.970301 -19.608000 23.067301 43 43 43 0.427263 0.903862 0.021890
16.931400 -17.100300 0.495577 7 7 7 -0.119128 0.133957 0.983801
17.770300 -16.642300 1.812400 43 43 43 -0.562901 0.577241 -0.591554
17.091600 -14.502400 0.443300 4 4 4 0.574366 0.774473 -0.265132
16.836399 -15.260000 2.955370 13 13 13 -0.902574 0.430499 0.005522
16.800501 -15.343900 3.066890 13 13 13 -0.875305 0.483435 0.011464
16.791500 -15.259200 5.075450 13 13 13 -0.885134 0.416789 -0.206942
18.650400 -15.272200 8.783520 56 56 56 -0.825486 0.563962 -0.022781
17.677601 -12.238200 -1.489330 1 1 1 -0.606426 0.414238 0.678716
18.158600 -12.672800 -0.927458 163 163 163 -0.955814 0.234462 0.177335
17.729799 -13.714700 1.835100 12 12 12 -0.875843 0.426033 -0.226704
17.535101 -13.742000 4.022820 15 15 15 -0.901009 0.432955 -0.027065
17.270599 -13.746900 5.387470 11 11 11 -0.871719 0.438540 -0.218605
17.058701 -11.278900 -1.497300 0 0 0 -0.555670 -0.444616 0.702529
18.252399 -11.676800 0.187520 29 29 29 -0.984575 -0.045907 -0.168831
16.825199 -7.835770 -1.416390 14 14 14 -0.151809 0.867290 0.474091
16.999800 -8.152880 -0.675777 34 34 34 -0.126383 0.948977 0.288912
17.698500 -6.167360 -1.627650 0 0 0 -0.734087 0.051726 0.677083
17.008301 -4.204370 -1.165520 6 6 6 -0.435921 -0.722137 0.537113
16.980000 -4.197460 -0.833351 34 34 34 -0.402287 -0.775251 0.486982
18.098700 -3.542650 -1.515230 8 8 8 0.095678 0.523986 0.846336
17.265301 2.402880 8.649150 6 6 6 -0.565795 -0.721926 0.398371
16.819500 13.431700 1.319770 32 32 32 -0.165685 -0.645673 0.745422
17.020399 15.874600 -1.315640 12 12 12 0.029123 -0.993970 -0.105711
17.158501 15.604400 -0.918863 1 1 1 -0.050823 -0.997020 0.058036
16.949301 14.914200 2.636870 4 4 4 -0.099182 -0.737553 0.667966
16.959400 15.421100 3.995050 40 40 40 -0.110090 -0.991744 0.065758
16.915501 15.419600 5.087660 43 43 43 -0.111353 -0.993774 0.003582
16.826200 15.414400 7.209050 32 32 32 -0.084825 -0.996113 -0.023737
17.684799 15.322800 9.977660 8 8 8 -0.080657 -0.996738 0.002895
16.807899 15.394500 11.806600 19 19 19 -0.110800 -0.991926 -0.061699
16.878401 15.380200 13.534900 13 13 13 -0.160377 -0.987055 -0.000928
16.834000 15.377000 15.388500 16 16 16 -0.160478 -0.987029 -0.004424
16.801201 15.344200 19.035000 16 16 16 -0.113602 -0.993518 -0.004002
16.788200 15.332300 19.067600 9 9 9 -0.122879 -0.992411 -0.004647
16.825199 15.363200 22.571600 7 7 7 -0.075156 -0.997094 -0.012467
16.991699 15.242100 24.424000 0 0 0 -0.107861 -0.994165 0.001703
16.834101 15.368500 26.131701 0 0 0 -0.098513 -0.995135 0.000934
16.858200 15.350300 27.872801 2 2 2 -0.102730 -0.994690 0.006136
16.949100 15.238600 29.886700 5 5 5 -0.088173 -0.995923 0.019035
16.949301 15.237500 31.581200 10 10 10 -0.073822 -0.997202 -0.011734
16.823601 15.237200 33.466202 10 10 10 -0.083386 -0.996516 -0.001559
16.965900 15.210800 35.189701 8 8 8 -0.086181 -0.996255 -0.006991
16.791000 15.205000 37.088402 4 4 4 -0.069499 -0.997563 0.006170
17.034800 15.229900 40.574799 5 5 5 -0.075780 -0.997103 0.006481
16.826599 15.233600 42.366901 16 16 16 -0.079950 -0.996734 -0.011369
17.423000 15.146900 44.270199 12 12 12 -0.092709 -0.995574 -0.015438
16.864300 15.189200 45.967602 18 18 18 -0.090400 -0.995893 -0.005095
16.881599 15.203600 47.810501 5 5 5 -0.065807 -0.997832 -0.000656
16.810499 15.214300 49.551498 10 10 10 -0.076939 -0.997035 0.001247
17.142599 15.165700 51.414001 7 7 7 -0.097864 -0.995190 -0.004318
16.850000 15.209500 53.138599 6 6 6 -0.070753 -0.997466 -0.007492
17.017200 15.090000 55.086300 8 8 8 -0.093558 -0.995600 -0.005296
17.179501 15.077900 58.670300 9 9 9 -0.092419 -0.995720 -0.000659
16.866600 15.143800 60.367199 10 10 10 -0.086633 -0.996226 0.005256
16.806499 15.088300 62.278702 10 10 10 -0.096748 -0.995267 -0.009090
16.885099 14.966900 64.023399 3 3 3 -0.093145 -0.995463 0.019451
17.262100 14.992800 65.909897 6 6 6 -0.089006 -0.996020 -0.004617
16.849100 14.970100 67.649101 5 5 5 -0.086073 -0.994932 -0.051973
18.011999 14.942000 69.528801 10 10 10 -0.083848 -0.996414 -0.011378
17.003500 14.991600 71.237801 15 15 15 -0.084785 -0.996355 0.009405
18.662701 14.779400 74.860703 7 7 7 -0.089415 -0.995480 -0.032011
18.242901 16.758499 -0.077436 1 1 1 -0.004705 -0.023494 0.999713
18.433001 16.260599 4.408180 0 0 0 -0.039061 -0.636239 0.770503
16.868299 20.829399 -0.768529 3 3 3 -0.150589 -0.243736 0.958079
16.959299 22.283400 -0.690256 1 1 1 -0.693304 0.172233 0.699761
17.473801 23.320700 1.243390 5 5 5 0.323255 -0.822097 0.468683
18.754601 35.834801 2.028780 17 17 17 -0.832431 -0.370817 0.411769
18.297701 36.514900 -2.954260 150 150 150 -0.696211 -0.579384 0.423796
18.275801 36.471001 -2.847670 128 128 128 -0.676924 -0.585872 0.445565
17.391199 75.722702 -2.195990 201 201 201 -0.622650 -0.379887 0.684100
16.840599 104.903000 -2.044550 85 85 85 -0.043283 -0.049681 0.997827
20.786100 -21.970699 12.704100 73 73 73 0.084635 0.774065 -0.627424
19.021200 -20.257000 8.386670 52 52 52 0.437596 0.898762 0.027146
18.970200 -20.254400 9.303860 50 50 50 0.431897 0.901704 0.019887
19.037001 -20.327000 11.082200 48 48 48 0.435866 0.899820 0.018557
18.850599 -20.280800 13.074100 49 49 49 0.433068 0.901077 0.022640
18.916300 -20.406300 15.536900 78 78 78 0.464893 0.885316 0.009484
19.033400 -20.690100 18.034700 31 31 31 0.588603 0.808123 -0.022008
18.971001 -20.468300 19.075500 41 41 41 0.428020 0.903684 -0.012388
19.152500 -18.675301 0.605539 26 26 26 -0.844599 -0.429014 0.320312
19.586201 -19.339300 1.080040 29 29 29 -0.745092 -0.354124 0.565185
18.820101 -16.049700 0.566120 11 11 11 -0.901881 0.431960 0.004604
18.788200 -16.104700 1.079220 14 14 14 -0.910336 0.412925 -0.027965
19.282600 -15.069400 -1.353290 13 13 13 -0.893005 0.445295 0.065225
19.034901 -15.743400 -0.828679 15 15 15 -0.913709 0.405784 -0.021806
18.990801 -15.667400 1.084560 15 15 15 -0.905613 0.422597 -0.035722
18.806299 -15.125100 7.823180 56 56 56 -0.803373 0.591019 -0.072727
19.063200 -14.635100 9.065310 69 69 69 -0.821718 0.568855 -0.034393
19.491501 -11.991400 -1.279200 17 17 17 -0.286224 0.825490 -0.486459
19.261499 -13.515000 0.121585 20 20 20 -0.887577 -0.456165 0.064188
18.806101 -12.065300 2.029350 18 18 18 -0.418044 0.898928 0.131025
19.029200 -12.549500 3.389500 2 2 2 0.135812 0.965349 0.222837
19.031900 -12.586300 5.089080 15 15 15 0.121260 0.853053 -0.507540
19.740499 -13.744200 7.887490 101 101 101 -0.870898 0.491452 0.003565
19.679399 -13.738700 9.064250 102 102 102 -0.813715 0.579024 -0.050987
18.788799 -11.623800 -1.388910 20 20 20 -0.759162 0.650896 -0.002783
18.834299 -11.587300 -0.929671 32 32 32 -0.775186 0.625972 -0.085121
18.832100 -7.865550 -1.063630 10 10 10 -0.024919 0.974852 0.221456
18.817699 -7.859670 -0.933740 11 11 11 -0.050420 0.964796 0.258119
18.829201 -4.905860 -1.112170 5 5 5 -0.272625 -0.933164 0.234265
18.957600 -4.964800 -0.917026 9 9 9 -0.350492 -0.932219 0.090126
20.649500 -3.159230 -1.400220 0 0 0 -0.105691 -0.221139 -0.969498
19.787600 11.744000 2.680900 36 36 36 -0.931361 -0.183078 -0.314722
19.768999 11.732800 3.088360 47 47 47 -0.967724 0.066096 -0.243192
19.011400 13.245200 1.525920 39 39 39 0.102433 -0.824183 -0.556983
19.779400 12.352300 3.153730 40 40 40 -0.994372 -0.030265 0.101535
19.037201 15.440900 -0.727500 55 55 55 -0.217652 -0.873167 0.436127
19.016300 15.107500 2.335120 0 0 0 -0.290447 -0.951749 0.099070
18.900499 15.289100 3.181230 36 36 36 -0.177258 -0.865100 0.469235
19.527599 15.194300 6.419740 11 11 11 -0.091523 -0.995798 -0.003058
19.470800 15.188400 8.288550 14 14 14 -0.107956 -0.994017 -0.016604
19.770700 15.143800 9.086010 33 33 33 -0.085725 -0.996263 -0.010593
19.472799 15.187700 11.833700 2 2 2 -0.104208 -0.994298 -0.022650
19.537600 15.196900 14.545600 6 6 6 -0.098807 -0.995061 -0.009518
19.120100 15.182200 15.487500 14 14 14 -0.082070 -0.996605 -0.006597
19.133400 15.191500 17.183901 3 3 3 -0.097710 -0.995215 0.000378
19.003201 15.164500 19.113899 16 16 16 -0.080764 -0.996727 -0.003551
18.858999 15.163700 22.688200 13 13 13 -0.082812 -0.996560 -0.003313
18.837000 15.184300 24.385201 4 4 4 -0.082436 -0.996573 -0.006832
19.002199 15.119000 26.336800 14 14 14 -0.076753 -0.997047 -0.002297
18.995600 15.112800 27.549299 11 11 11 -0.083702 -0.996439 -0.010170
19.157700 15.084500 29.939100 13 13 13 -0.092054 -0.995753 0.001253
18.791000 15.141800 31.598801 8 8 8 -0.082575 -0.996517 -0.011649
18.805401 15.073500 33.472698 11 11 11 -0.083323 -0.996479 -0.009288
19.011600 15.120100 35.181198 2 2 2 -0.097180 -0.995253 0.005240
18.951401 15.070700 37.125000 11 11 11 -0.088522 -0.996074 -0.000894
19.212400 15.041600 40.730499 10 10 10 -0.088472 -0.996044 -0.008310
18.823601 15.004300 42.481602 9 9 9 -0.105939 -0.994156 -0.020761
19.022900 15.046000 44.311100 6 6 6 -0.076487 -0.996906 -0.018143
18.904600 14.989200 46.086601 10 10 10 -0.086414 -0.996248 -0.004679
18.897900 14.982700 47.954201 9 9 9 -0.082826 -0.996563 -0.001075
18.911699 14.992600 49.685600 13 13 13 -0.089603 -0.995935 -0.009181
19.000299 14.984900 51.523800 11 11 11 -0.085954 -0.996287 -0.004885
18.948000 14.942500 53.285000 11 11 11 -0.093202 -0.995576 -0.011887
18.808800 14.983300 56.856800 12 12 12 -0.072278 -0.997365 -0.006173
18.895000 14.935700 58.736500 10 10 10 -0.084872 -0.996377 -0.005431
18.812401 14.983900 60.427101 8 8 8 -0.081091 -0.996690 -0.005846
18.839800 14.966000 62.324100 5 5 5 -0.068265 -0.997657 -0.004571
19.171101 14.878200 64.088699 12 12 12 -0.121665 -0.992534 0.008624
18.795000 14.965800 67.669998 8 8 8 -0.100645 -0.994505 0.028806
19.008801 14.940900 71.246300 6 6 6 -0.101414 -0.994800 0.009405
18.979000 14.837500 74.835503 10 10 10 -0.087406 -0.996134 -0.008806
19.281900 17.983601 -0.992342 9 9 9 -0.960695 0.171502 0.218295
19.036301 16.583200 -0.615959 2 2 2 -0.580726 0.135926 0.802671
20.065599 16.273001 3.834090 12 12 12 -0.940900 0.034668 0.336907
19.671801 20.086300 -1.292600 4 4 4 -0.711376 -0.647113 0.274204
19.529800 20.193701 -0.841723 6 6 6 -0.264791 -0.096127 0.959503
18.805901 20.397600 -0.922877 7 7 7 -0.342646 -0.847766 0.404829
18.946199 22.977200 0.332581 1 1 1 -0.022808 -0.538089 0.842579
19.770700 30.411100 5.603430 46 46 46 -0.993239 0.115330 0.013214
19.676300 30.431101 7.076190 128 128 128 -0.979472 0.201497 -0.005824
19.537600 30.467501 10.105300 33 33 33 -0.866224 0.499589 0.008159
19.506300 30.417999 11.074700 76 76 76 -0.862650 0.505415 0.019765
19.319799 30.372900 15.462800 14 14 14 -0.846981 0.530921 -0.027319
19.238899 30.413900 17.173000 23 23 23 -0.854122 0.519032 -0.032876
19.216101 33.968498 0.893252 33 33 33 0.125052 -0.824616 0.551698
19.165100 33.976799 1.862140 24 24 24 -0.830838 -0.135903 0.539665
20.298500 34.058601 3.070530 18 18 18 -0.775149 -0.298667 0.556724
18.999599 34.286598 1.011770 27 27 27 -0.614072 -0.647747 0.450933
19.025499 34.333302 1.111860 25 25 25 -0.732882 -0.520444 0.438203
20.179899 34.248901 3.082290 20 20 20 -0.775545 -0.312652 0.548434
19.974501 34.994801 8.677990 73 73 73 -0.983197 0.104986 -0.149339
19.849501 36.466400 -2.971680 14 14 14 -0.590298 -0.806364 0.036409
19.743900 36.491501 -2.889740 59 59 59 -0.618711 -0.780921 0.085785
18.993900 37.781700 0.623703 30 30 30 -0.999008 0.005390 0.044195
19.012199 37.464298 1.713270 22 22 22 -0.908671 -0.213492 -0.358801
19.397100 43.666698 -1.828360 204 204 204 0.069979 -0.340589 -0.937604
20.518999 45.882301 -4.232880 32 32 32 -0.668088 0.320303 0.671613
20.786301 144.544006 5.601430 74 74 74 -0.070178 -0.211095 0.974943
21.274799 -22.541901 10.188700 130 130 130 0.006994 -0.057205 -0.998338
21.139000 -22.627899 13.013600 127 127 127 -0.525388 0.380310 -0.761139
21.140699 -22.573799 13.077500 54 54 54 -0.436122 0.344477 -0.831344
21.664301 -22.108801 15.330700 106 106 106 0.292145 0.956374 -0.000470
21.497700 -22.107700 18.216400 51 51 51 0.032673 0.970784 -0.237722
21.719500 -21.782600 19.101000 51 51 51 0.434376 0.900732 -0.000113
21.104601 -21.212000 9.007450 83 83 83 0.438949 0.886388 0.147105
21.029699 -21.244699 10.009500 52 52 52 0.574293 0.818624 0.006530
20.931900 -21.254400 12.801000 68 68 68 0.513616 0.855999 0.058862
20.965500 -21.289101 13.537900 44 44 44 0.417796 0.892680 -0.169024
20.815100 -21.242800 15.576900 94 94 94 0.439893 0.897824 0.020171
21.329100 -21.390699 18.289000 44 44 44 0.507489 0.843048 0.178113
21.016800 -21.451500 19.207899 38 38 38 0.429925 0.902356 0.030302
21.362801 -14.010000 1.125420 45 45 45 0.016248 0.698983 -0.714953
20.885099 -15.538400 8.175220 69 69 69 -0.116116 -0.076961 -0.990250
21.639601 -12.903000 -1.334480 0 0 0 -0.008418 0.510189 0.860021
20.914499 -12.794900 1.974690 3 3 3 0.284384 0.849217 -0.444923
21.029600 -12.757400 3.966770 5 5 5 0.095002 0.995275 0.020064
20.979799 -12.764000 5.083410 9 9 9 0.214085 0.904574 -0.368665
20.970800 -3.968280 -1.438000 1 1 1 0.084507 0.375079 0.923133
20.850201 -3.458560 -1.432670 0 0 0 0.104763 0.265684 0.958351
20.944799 11.591200 2.116570 25 25 25 -0.143635 -0.989557 -0.012097
20.884800 11.591500 3.075360 30 30 30 -0.207573 -0.962171 0.176464
21.729000 12.822500 1.964280 115 115 115 -0.008769 -0.506477 -0.862209
21.186001 13.378200 4.160500 9 9 9 -0.157246 -0.585655 0.795162
22.770599 13.953600 49.233601 11 11 11 -0.532863 -0.846182 -0.005775
22.747601 13.742200 51.775902 8 8 8 -0.539834 -0.840504 0.046170
22.482401 13.733700 56.472301 1 1 1 -0.479329 -0.877269 -0.025362
22.485500 13.618300 58.976200 3 3 3 -0.496762 -0.863771 -0.084420
22.226900 14.197100 60.049198 8 8 8 -0.387845 -0.917586 -0.087253
22.270901 13.793400 62.544399 5 5 5 -0.519845 -0.854251 0.004054
22.254101 13.705100 63.628899 10 10 10 -0.467451 -0.883887 -0.015287
22.159000 13.644900 66.174202 6 6 6 -0.482224 -0.875468 -0.031868
22.033300 13.759100 67.223503 8 8 8 -0.431268 -0.901753 -0.029153
22.066900 13.586000 69.723099 4 4 4 -0.397405 -0.917553 -0.012905
20.918200 15.411300 -1.066980 18 18 18 -0.049914 -0.998556 -0.019836
20.971500 15.328000 0.686799 2 2 2 0.097067 -0.987152 -0.126923
20.885000 15.103300 3.614320 4 4 4 0.072021 -0.912034 0.403741
21.032499 15.088200 5.770650 25 25 25 -0.128076 -0.956797 0.261027
20.875299 15.094000 8.288840 2 2 2 -0.077584 -0.996980 0.003381
21.285400 15.026000 9.081570 50 50 50 -0.081026 -0.996662 -0.010023
20.837400 15.064300 11.926400 8 8 8 -0.082709 -0.996530 -0.009313
20.800400 15.036300 13.716000 9 9 9 -0.080853 -0.996715 -0.004755
20.976601 15.042100 15.539600 6 6 6 -0.068622 -0.997594 -0.009890
20.993099 14.972700 17.369400 2 2 2 -0.104440 -0.994517 0.005263
20.914301 14.994900 19.101900 21 21 21 -0.090106 -0.995923 -0.004170
20.836399 14.977300 21.219101 3 3 3 -0.091333 -0.995817 0.002717
20.807100 14.993700 24.484699 10 10 10 -0.087457 -0.996166 -0.002026
20.788900 14.979200 26.377100 12 12 12 -0.079397 -0.996842 -0.001168
20.960600 14.981500 28.079000 5 5 5 -0.069321 -0.997561 -0.008119
20.834400 14.969400 29.972200 9 9 9 -0.083367 -0.996497 -0.006674
20.825399 14.961800 31.689800 6 6 6 -0.092452 -0.995715 -0.001930
20.802700 14.944100 33.589001 10 10 10 -0.076355 -0.997057 -0.006890
20.865000 14.947800 35.312099 7 7 7 -0.076544 -0.997066 0.000231
20.834400 14.924600 37.185398 8 8 8 -0.089719 -0.995960 -0.003904
20.825500 14.915800 40.786701 8 8 8 -0.139413 -0.990233 0.001651
21.928499 14.725900 42.622700 4 4 4 -0.474180 -0.880424 -0.002676
21.853100 14.793300 44.468102 9 9 9 -0.513503 -0.834884 -0.198201
21.463499 14.766000 46.188900 8 8 8 -0.305465 -0.951446 0.037981
20.867500 14.822400 48.025700 8 8 8 -0.217182 -0.976014 -0.015114
20.825100 14.870400 49.737598 8 8 8 -0.136691 -0.990584 0.007713
20.796700 14.730400 51.706001 0 0 0 -0.146082 -0.989157 -0.015132
21.296000 14.724500 53.396702 7 7 7 -0.365288 -0.930195 0.036079
21.076799 14.728500 56.992401 9 9 9 -0.329089 -0.938988 0.100010
20.990400 14.705500 60.570202 9 9 9 -0.339779 -0.926810 0.159916
20.863899 14.731400 64.188400 12 12 12 -0.288553 -0.956444 0.044187
21.870100 14.632800 66.107903 8 8 8 -0.331992 -0.924559 0.187011
21.227900 14.668900 67.810898 12 12 12 -0.185443 -0.982649 0.003340
21.257000 14.687000 71.370399 14 14 14 -0.090058 -0.995934 0.002300
21.025700 14.682200 74.934303 10 10 10 -0.087630 -0.996152 -0.001636
22.136600 16.480301 -0.265733 3 3 3 0.497033 -0.834567 -0.237606
21.000799 16.641300 3.983460 3 3 3 -0.526553 0.191836 -0.828215
20.807400 19.951099 -0.491323 14 14 14 -0.113773 -0.112127 0.987159
21.445200 21.032700 -0.142964 4 4 4 -0.210258 -0.281909 0.936119
20.987499 22.878300 -0.116555 8 8 8 -0.479754 -0.854237 0.200288
20.798901 34.020401 -0.564349 5 5 5 0.527839 -0.801229 0.281814
21.009300 33.224300 4.593700 148 148 148 0.474201 -0.526184 -0.705877
21.759199 34.994499 -1.127150 35 35 35 0.568219 -0.757074 -0.322438
21.354300 34.830299 -0.924871 8 8 8 0.453118 -0.784961 -0.422517
22.013201 34.427898 1.266720 10 10 10 0.231753 -0.957343 -0.172585
20.811300 34.818501 4.493780 39 39 39 -0.785499 0.231055 0.574112
21.465700 37.501499 3.871190 5 5 5 -0.718682 0.221891 0.658985
21.229000 38.536701 -0.051843 31 31 31 0.134037 -0.134461 0.981812
22.222700 103.905998 -1.927870 59 59 59 -0.029513 -0.051095 0.998258
20.971399 144.535004 5.638840 84 84 84 -0.065548 -0.218090 0.973725
24.434099 -24.011499 15.930500 86 86 86 -0.226972 0.973889 0.004925
23.031200 -22.123800 9.470410 95 95 95 0.322976 0.945450 0.042548
22.898600 -22.164101 11.068700 47 47 47 0.395514 0.918074 0.026614
22.865101 -22.133200 13.107700 85 85 85 0.350524 0.936553 -0.001268
23.969500 -22.799299 16.708799 40 40 40 0.438122 0.898356 -0.031708
23.223801 -22.370899 18.065100 93 93 93 0.392428 0.917261 0.068066
22.921200 -22.361700 19.242399 37 37 37 0.424961 0.904684 0.030896
23.363199 -14.130800 -1.300890 1 1 1 -0.464272 0.492807 0.735929
23.875000 -14.812100 -0.767635 53 53 53 -0.908495 0.417884 0.003007
23.263399 -14.071800 2.088370 21 21 21 -0.297941 0.114655 -0.947674
23.506001 -13.737600 -1.293740 1 1 1 -0.365007 0.357624 0.859579
24.282801 -13.745300 0.790384 59 59 59 -0.921266 0.388421 0.019946
22.919100 -13.088600 2.067320 4 4 4 0.031673 0.719655 -0.693609
22.874500 -12.873600 3.113340 4 4 4 0.064267 0.937437 0.342171
22.830299 -12.924800 5.086950 14 14 14 0.214328 0.861584 -0.460149
22.888201 -4.509840 -1.409140 2 2 2 0.002071 0.115881 0.993261
23.007299 -3.549480 -1.377570 0 0 0 -0.029310 -0.009784 0.999523
24.579800 -1.912710 -0.667383 2 2 2 -0.032539 -0.251726 0.967251
24.073000 4.161130 0.476238 0 0 0 -0.580399 0.059773 0.812136
24.784599 4.252460 -0.574799 3 3 3 -0.676867 -0.113522 0.727299
23.531601 10.121600 -0.534805 76 76 76 -0.227974 -0.889121 0.396852
23.290701 10.262100 -0.488173 86 86 86 -0.283523 -0.888577 0.360618
23.030100 11.416700 2.167000 17 17 17 -0.078514 -0.996416 -0.031471
22.836000 11.427000 3.068640 28 28 28 -0.074150 -0.981341 0.177401
24.711300 12.561200 2.128390 174 174 174 0.091759 -0.477249 -0.873964
22.822001 12.480000 3.688450 5 5 5 -0.084165 -0.594635 0.799579
24.521500 14.221400 5.454000 25 25 25 -0.818622 -0.537182 0.203209
24.535801 13.981200 8.614170 28 28 28 -0.891940 -0.451016 -0.032054
24.527300 13.975800 9.588800 63 63 63 -0.853175 -0.509141 -0.113440
24.284599 14.202300 12.186300 22 22 22 -0.911715 -0.409418 0.033960
24.279301 14.158000 13.119200 53 53 53 -0.889918 -0.453927 -0.044674
24.286301 13.713800 16.925900 2 2 2 -0.934675 -0.336019 -0.116074
24.035999 13.890500 20.494301 7 7 7 -0.827714 -0.551224 -0.105082
24.037800 13.728100 23.013300 8 8 8 -0.879990 -0.470659 0.064012
23.784901 14.144600 24.061399 11 11 11 -0.799729 -0.589630 -0.113006
23.785801 13.940900 26.530300 27 27 27 -0.701663 -0.712471 0.007398
23.785299 13.899800 27.610901 25 25 25 -0.693291 -0.718242 -0.058947
23.526100 14.145800 30.164000 9 9 9 -0.736435 -0.676108 -0.023277
23.506500 13.973800 31.286800 3 3 3 -0.796716 -0.584011 -0.155479
23.522600 13.741900 33.764198 6 6 6 -0.684669 -0.727588 0.042955
23.246599 13.933000 37.356098 6 6 6 -0.731113 -0.671669 0.119727
23.268700 13.707200 40.936199 12 12 12 -0.779222 -0.618620 0.100609
23.025801 14.114700 42.038200 9 9 9 -0.751219 -0.659245 -0.032641
23.016300 13.909200 44.535400 11 11 11 -0.687567 -0.723209 -0.064963
23.029499 13.916500 45.588902 15 15 15 -0.697549 -0.714401 -0.055277
23.018801 13.594200 48.135300 11 11 11 -0.629815 -0.774434 -0.059873
23.034901 13.721000 49.189301 10 10 10 -0.530423 -0.847731 -0.001852
22.946501 13.432600 51.752602 5 5 5 -0.574530 -0.806592 0.139010
24.437700 12.936800 53.517101 8 8 8 -0.407368 -0.912369 -0.040433
22.947701 13.431200 55.292301 8 8 8 -0.716121 -0.695036 -0.064006
22.933001 13.189100 60.028900 9 9 9 -0.517100 -0.854966 -0.040507
23.376200 13.054600 62.532001 7 7 7 -0.520709 -0.853260 -0.028443
22.903200 13.169900 63.598000 7 7 7 -0.569967 -0.821634 -0.007457
24.513100 12.889800 67.917099 17 17 17 -0.409613 -0.911266 0.042570
24.286800 16.161800 1.264950 9 9 9 -0.068250 -0.926815 -0.369264
22.924500 14.275400 5.159030 5 5 5 -0.105399 -0.814381 0.570680
22.938900 14.890400 7.370550 9 9 9 -0.093352 -0.995560 -0.012079
24.285700 14.826000 10.070300 26 26 26 -0.958485 -0.282385 -0.039556
23.412399 14.821500 12.138600 11 11 11 -0.376580 -0.922314 -0.086746
24.255501 14.266800 13.189100 23 23 23 -0.880527 -0.473538 -0.020852
24.035400 14.710600 16.728201 33 33 33 -0.934108 -0.355770 -0.029490
23.453800 14.802800 17.385201 6 6 6 -0.520291 -0.852049 0.057528
23.257601 14.801000 19.288300 14 14 14 -0.525172 -0.850149 -0.037965
23.113701 14.788700 22.888201 14 14 14 -0.455297 -0.880629 -0.131138
23.147600 14.809200 24.547701 3 3 3 -0.526906 -0.848438 0.050230
23.034401 14.776300 26.483601 13 13 13 -0.624290 -0.775115 -0.097256
23.171200 14.739500 28.273300 5 5 5 -0.601222 -0.798344 0.034335
23.021200 14.765300 30.086100 10 10 10 -0.583062 -0.806440 -0.098448
22.920500 14.739700 31.833099 7 7 7 -0.526177 -0.849990 0.025602
22.839701 14.726700 33.729301 7 7 7 -0.627075 -0.774190 -0.086057
22.845699 14.729400 35.435200 8 8 8 -0.599418 -0.800431 -0.002719
22.799101 14.738700 37.269100 11 11 11 -0.680856 -0.722990 -0.117130
23.030100 14.318100 40.930000 7 7 7 -0.763449 -0.642752 -0.063372
23.018700 14.269900 42.039299 12 12 12 -0.752908 -0.655632 0.057245
22.803801 14.696600 44.478199 10 10 10 -0.823972 -0.563837 -0.056190
22.926300 14.491100 45.581902 7 7 7 -0.809533 -0.584076 -0.059257
22.799700 14.368600 49.166401 8 8 8 -0.509642 -0.856395 -0.082773
22.804501 14.477700 75.056396 11 11 11 -0.107361 -0.994041 0.018872
22.803699 14.436900 75.075203 7 7 7 -0.113242 -0.993474 0.013601
22.954201 16.426001 -0.816433 5 5 5 0.362430 -0.912571 -0.189366
22.789101 21.741301 0.232011 11 11 11 -0.666311 -0.722853 0.183066
22.821800 34.916801 -1.176390 38 38 38 0.377783 -0.921303 0.092095
22.819401 34.913101 -0.912740 37 37 37 0.355210 -0.933564 0.047789
23.737900 39.155602 0.289825 18 18 18 0.212683 -0.272847 0.938254
22.829599 144.509003 5.722240 68 68 68 -0.059712 -0.235209 0.970109
26.690500 -23.771500 11.072100 39 39 39 0.391823 0.911782 0.123000
26.158199 -23.774500 13.685700 40 40 40 0.423555 0.905090 0.037594
26.409500 -23.823000 15.827500 99 99 99 0.344924 0.937946 -0.035844
25.925600 -23.805599 19.396000 39 39 39 0.431383 0.902076 0.012901
25.172501 -23.050301 10.091300 43 43 43 0.381113 0.917189 0.116265
25.022900 -23.087999 11.750000 92 92 92 0.433416 0.901186 -0.003718
24.975300 -23.044901 13.082300 94 94 94 0.437061 0.891160 0.121703
25.435699 -23.471600 15.883700 38 38 38 0.415424 0.909584 0.008957
25.511499 -23.542299 17.160500 39 39 39 0.417625 0.908492 0.015260
24.983900 -23.350000 19.333300 35 35 35 0.432015 0.901681 0.018278
25.395300 -21.332701 10.113500 26 26 26 -0.108723 -0.341692 -0.933502
24.881800 -14.332500 -1.118650 5 5 5 -0.412220 0.141018 -0.900105
25.483801 -14.255800 -0.785855 11 11 11 -0.137830 -0.282888 0.949198
25.258101 -15.715500 1.851200 11 11 11 -0.639813 -0.680075 -0.357961
24.835100 -12.768300 -0.217126 5 5 5 -0.955205 0.243308 0.168475
24.868099 -12.785800 1.082250 6 6 6 -0.836921 0.524935 0.154942
24.803200 -12.792200 3.132500 6 6 6 0.032640 0.956232 0.290783
24.960400 -12.715600 5.486450 9 9 9 -0.076841 0.972743 -0.218782
26.525700 -12.765700 7.068290 10 10 10 0.083676 0.996230 0.022905
26.754200 -10.588600 -0.579021 72 72 72 -0.548013 0.824447 0.141311
26.740601 -10.659800 1.064360 54 54 54 -0.384196 0.625962 0.678649
24.818300 -4.954470 -1.322150 0 0 0 -0.031245 -0.007784 0.999481
24.835199 -3.735870 -1.319170 1 1 1 -0.029839 -0.044051 0.998584
24.799900 4.287070 -0.457426 1 1 1 -0.690548 -0.104713 0.715667
26.562000 7.255440 2.851820 34 34 34 0.128859 -0.874798 0.467037
26.324600 7.440090 3.959760 34 34 34 0.105152 -0.839642 0.532865
26.274200 7.175700 5.872970 15 15 15 -0.895739 0.157414 0.415779
25.035400 10.030800 -0.060586 22 22 22 -0.092159 -0.890745 0.445062
26.224199 8.346450 3.376470 27 27 27 -0.340096 -0.936152 0.089182
26.530199 8.700610 6.143550 11 11 11 -0.890302 -0.432956 0.141108
25.002899 11.240800 2.389130 25 25 25 -0.106388 -0.994049 -0.023403
25.006800 11.242200 3.085350 22 22 22 -0.088439 -0.994567 0.054902
25.012100 13.393500 4.668990 10 10 10 -0.235511 -0.811743 0.534422
24.913900 13.623600 5.087820 48 48 48 -0.764960 -0.619407 0.176552
24.811100 13.606600 8.482320 30 30 30 -0.898057 -0.439853 0.004831
25.713600 13.149100 9.075050 20 20 20 -0.716736 -0.696943 -0.023688
25.630699 13.105100 12.038300 29 29 29 -0.692450 -0.701439 -0.168808
25.034901 13.238400 13.347000 1 1 1 -0.821628 -0.569270 -0.029311
24.890900 13.282400 15.683800 36 36 36 -0.842699 -0.525228 -0.118296
25.930700 13.048900 19.369301 11 11 11 -0.439224 -0.895678 0.069592
25.087799 13.100200 24.032400 18 18 18 -0.656829 -0.753110 -0.037429
26.672701 12.957600 28.317101 6 6 6 -0.200832 -0.978948 -0.036431
24.809299 13.108000 30.112101 9 9 9 -0.568034 -0.823002 0.002049
25.254700 13.019800 31.904400 9 9 9 -0.322142 -0.946668 0.006634
25.226999 13.004300 33.784302 10 10 10 -0.246136 -0.969148 0.012968
25.154699 13.046000 35.453602 6 6 6 -0.270238 -0.961492 -0.050049
26.703100 12.882800 39.125801 8 8 8 -0.197391 -0.980182 -0.016755
24.794600 12.974500 42.733501 7 7 7 -0.417657 -0.907826 -0.037599
26.246500 12.862400 44.637100 10 10 10 -0.216945 -0.974875 0.050527
25.871799 12.838700 48.236401 5 5 5 -0.265973 -0.963707 0.022978
25.264601 12.974000 49.865898 4 4 4 -0.259107 -0.961870 -0.087575
25.037701 12.935300 51.795300 12 12 12 -0.348154 -0.937274 -0.017523
25.030100 12.890800 53.536800 12 12 12 -0.322461 -0.946263 -0.024585
25.494400 12.846100 57.149200 11 11 11 -0.272923 -0.961618 -0.028349
26.057501 12.801200 60.757000 9 9 9 -0.228642 -0.972339 -0.047739
26.616699 12.700800 68.015297 16 16 16 -0.292320 -0.953180 0.077435
26.004601 16.242100 -1.230140 119 119 119 0.006275 -0.999932 -0.009784
26.035601 16.215500 -0.835120 8 8 8 0.174823 -0.983889 -0.037410
25.004601 16.100700 1.284860 12 12 12 -0.135749 -0.927444 -0.348455
25.036100 15.242700 7.566840 0 0 0 -0.852340 0.521416 0.040520
26.003599 16.286800 -1.162520 82 82 82 -0.009610 -0.999460 -0.031416
26.001801 16.285700 -0.930847 26 26 26 0.057795 -0.996696 -0.057067
25.875900 16.341299 1.078590 47 47 47 -0.070277 -0.990226 -0.120474
25.943300 22.140600 8.728320 1 1 1 -0.562148 0.152302 -0.812892
25.028200 23.046000 9.059450 1 1 1 -0.975652 0.104508 0.192823
25.412300 23.459101 9.195240 1 1 1 -0.970708 0.120757 0.207711
26.162399 23.310301 11.490100 0 0 0 -0.843298 0.198485 -0.499451
25.437300 38.703499 0.525948 25 25 25 0.475299 -0.589860 0.652807
25.356300 44.946899 10.439300 4 4 4 -0.897694 0.438658 0.041533
24.883301 144.511993 6.049160 124 124 124 -0.063201 -0.200213 0.977712
27.188101 -24.214701 11.430300 39 39 39 0.367104 0.929566 0.033790
27.017099 -24.185499 13.705000 37 37 37 0.426739 0.904223 0.016579
27.030701 -24.260900 15.812200 49 49 49 0.330726 0.943714 0.004932
27.175699 -24.393101 18.702999 54 54 54 0.314051 0.949242 0.017670
27.035299 -24.328899 19.165600 36 36 36 0.429615 0.902831 0.018103
27.963699 -22.209999 22.594900 12 12 12 0.310182 0.684902 -0.659316
26.963400 -16.262699 -1.112790 53 53 53 -0.562384 -0.823939 0.069629
26.921600 -16.283501 -0.391917 46 46 46 -0.558217 -0.815190 0.154462
27.504700 -17.017500 1.869960 82 82 82 -0.542608 0.724521 0.425025
27.502899 -15.386400 1.964090 16 16 16 0.249778 0.412352 -0.876115
26.861300 -12.759800 2.423310 11 11 11 0.060530 0.927729 0.368315
26.805300 -13.232100 3.531400 2 2 2 0.050482 0.892389 0.448434
26.794300 -12.769900 5.926670 9 9 9 0.103585 0.994482 -0.016590
27.269899 -12.829700 7.090240 8 8 8 0.080377 0.996544 0.020946
28.725599 -9.848160 -1.183020 3 3 3 0.010112 0.857989 0.513569
26.812901 -10.532100 -0.526290 16 16 16 -0.543094 0.824064 0.161141
26.790100 -10.021300 1.233940 58 58 58 -0.034553 0.301611 0.952805
27.196301 -5.216160 -1.287980 2 2 2 -0.028043 -0.049094 0.998400
28.023199 6.234190 3.381350 26 26 26 -0.879470 -0.416390 -0.230547
27.864901 5.977770 5.275580 25 25 25 -0.869261 -0.494143 0.014415
27.815800 7.299040 0.834474 50 50 50 -0.968583 0.245789 0.037868
27.277201 7.414220 2.685520 40 40 40 -0.816803 -0.430035 -0.384581
27.239500 7.330500 3.413260 60 60 60 -0.826464 -0.278208 -0.489446
26.946400 7.982080 6.466710 25 25 25 -0.880188 -0.467649 0.081074
27.473801 7.614050 7.789260 34 34 34 -0.867717 -0.467163 0.169782
27.878799 9.730020 1.777910 40 40 40 0.026713 -0.401108 0.915641
26.798201 9.051010 4.579900 28 28 28 -0.995010 0.020623 -0.097622
26.971800 8.247990 6.985280 26 26 26 -0.891567 -0.433702 0.130428
26.820101 11.098400 2.375380 20 20 20 -0.096912 -0.995293 0.000651
26.974001 11.082200 3.068460 22 22 22 -0.051368 -0.944484 0.324517
27.780899 12.322800 2.263350 255 255 255 -0.557966 -0.214344 -0.801705
27.386200 12.270000 4.034440 7 7 7 -0.049441 -0.676055 0.735191
27.421200 12.995800 5.481390 19 19 19 -0.200755 -0.888650 0.412308
28.748899 12.834400 10.468500 13 13 13 -0.110918 -0.993822 0.003858
28.677200 12.844900 12.037800 32 32 32 -0.147921 -0.988985 0.005324
27.115200 12.972600 13.065500 16 16 16 -0.204989 -0.977022 0.058367
28.487801 12.844900 15.312600 34 34 34 -0.096748 -0.995228 -0.012727
28.060600 12.905600 17.543600 3 3 3 -0.110028 -0.993842 -0.013085
26.840599 12.962100 19.303900 16 16 16 -0.245122 -0.969067 -0.028704
26.803801 12.943100 21.189699 5 5 5 -0.249423 -0.967571 -0.039926
26.825701 12.951200 24.722099 5 5 5 -0.262094 -0.964427 -0.034443
28.382500 12.790100 26.711800 10 10 10 -0.317555 -0.946470 -0.057898
26.817200 12.944800 28.329000 5 5 5 -0.195283 -0.979975 -0.038909
26.883301 12.934100 30.162100 3 3 3 -0.195270 -0.979537 -0.048751
27.098000 12.868400 31.974899 9 9 9 -0.127019 -0.991637 -0.022858
27.388500 12.836700 35.574799 8 8 8 -0.142664 -0.989353 0.028773
28.612700 12.712900 39.234299 11 11 11 -0.395379 -0.917611 -0.040806
27.052299 12.797100 44.679798 10 10 10 -0.179246 -0.983758 0.009522
27.025999 12.825200 46.377201 6 6 6 -0.192048 -0.981205 0.018813
26.892200 12.802000 48.239101 9 9 9 -0.205830 -0.977750 -0.040483
26.790001 12.793700 49.998100 10 10 10 -0.200746 -0.979149 -0.031115
27.855499 12.573100 62.793900 2 2 2 -0.162516 -0.985177 0.054904
27.132401 12.656200 68.038300 14 14 14 -0.272259 -0.959002 0.078672
26.901699 16.243000 -1.065100 5 5 5 -0.027968 -0.996122 0.083423
28.535299 16.170700 -0.686824 16 16 16 -0.658904 -0.686817 0.306804
26.858101 15.941200 1.389650 12 12 12 -0.024847 -0.919134 -0.393161
27.282700 16.801701 0.333663 1 1 1 0.135900 -0.893635 -0.427723
28.742001 19.440599 0.916353 1 1 1 -0.742096 -0.123894 -0.658744
27.259899 23.147301 7.609050 1 1 1 -0.372463 -0.839191 0.396269
30.723499 -26.011999 17.069799 22 22 22 0.530462 0.847080 0.032656
30.704599 -26.063299 19.533100 30 30 30 0.436370 0.899701 0.010913
28.838100 -24.598301 11.425700 67 67 67 0.224398 0.974219 0.023296
28.960699 -24.518499 14.484900 18 18 18 -0.191373 0.981462 0.010412
29.027700 -24.575800 15.399800 18 18 18 -0.140310 0.990068 0.008825
28.872900 -24.570299 18.284500 22 22 22 -0.237305 0.971430 -0.003206
28.789900 -24.562099 19.093599 18 18 18 -0.186019 0.982491 -0.010443
30.126600 -15.393300 1.032760 121 121 121 -0.864530 0.498836 -0.061238
29.518200 -15.129600 1.354750 11 11 11 -0.504362 0.863336 0.016437
29.057501 -13.759600 4.366530 9 9 9 -0.019984 0.945280 0.325649
30.304600 -13.425000 0.236865 66 66 66 -0.480552 -0.340679 0.808089
28.875700 -12.925200 2.523020 13 13 13 0.122923 0.913978 0.386697
29.013399 -13.738700 4.317800 5 5 5 -0.009252 0.944876 0.327296
28.879900 -12.928400 5.882010 8 8 8 0.081256 0.996288 0.028416
28.829901 -12.949600 7.082310 8 8 8 0.081130 0.996614 0.013379
30.743900 -10.974800 -1.089980 36 36 36 -0.996142 0.085959 0.017673
30.692101 -11.613500 0.248947 4 4 4 -0.998866 0.005931 -0.047234
28.795700 -10.402800 1.235090 59 59 59 0.029762 0.917186 -0.397347
29.592300 -9.527030 -1.157330 2 2 2 -0.656319 -0.234242 0.717200
28.794300 6.368080 2.733520 29 29 29 -0.655333 -0.622355 -0.428033
29.002701 9.432510 1.916130 17 17 17 -0.082224 -0.128999 -0.988230
28.964800 10.850000 2.629070 6 6 6 -0.200689 -0.977708 -0.061732
28.910999 10.912900 3.076990 20 20 20 -0.155687 -0.980760 0.117774
30.767401 11.860700 35.187000 6 6 6 -0.515182 -0.856618 -0.028172
30.770901 11.639900 37.696701 3 3 3 -0.656909 -0.750497 -0.072276
30.526300 11.808200 41.274399 5 5 5 -0.603008 -0.796794 -0.038745
30.483400 11.789400 44.797199 11 11 11 -0.428430 -0.903414 -0.017078
30.535101 11.676800 45.860600 8 8 8 -0.463169 -0.886164 -0.013688
30.278400 11.707800 48.466999 6 6 6 -0.352605 -0.935451 0.024505
30.268499 11.659400 49.532501 10 10 10 -0.349371 -0.936976 0.003917
30.252199 11.651100 53.063000 9 9 9 -0.263075 -0.964688 -0.012971
30.255600 11.479000 53.125000 11 11 11 -0.292719 -0.955676 -0.031595
30.031300 11.477500 56.787201 3 3 3 -0.270598 -0.962494 -0.019547
29.764099 11.717400 60.332600 10 10 10 -0.220749 -0.975304 -0.007209
29.766001 11.631200 62.816898 10 10 10 -0.233950 -0.972243 -0.003316
29.537800 12.396700 1.571520 86 86 86 -0.489855 0.153680 -0.858151
28.909000 12.261300 4.176470 5 5 5 -0.024394 -0.711022 0.702747
28.893999 12.858000 6.063210 26 26 26 -0.112373 -0.957271 0.266467
28.858000 12.841200 7.800600 11 11 11 -0.124823 -0.992058 0.015510
28.840900 12.874600 12.157700 1 1 1 -0.161093 -0.986857 -0.012755
28.875999 12.846100 13.891100 2 2 2 -0.104032 -0.994552 -0.006583
28.857800 12.836900 15.718300 1 1 1 -0.164771 -0.985896 -0.029328
29.988300 12.711300 19.533199 8 8 8 -0.342576 -0.936547 -0.074303
28.945601 12.735700 32.020599 6 6 6 -0.299044 -0.953551 0.036227
30.786699 12.451200 34.029900 12 12 12 -0.797246 -0.603039 -0.027261
30.714800 12.330500 37.558498 5 5 5 -0.860085 -0.508150 -0.045129
29.261499 12.650800 39.232800 6 6 6 -0.512515 -0.857859 -0.037505
30.191700 12.513000 46.542198 11 11 11 -0.452182 -0.884924 -0.111538
28.795000 16.031000 -0.962591 255 255 255 -0.886134 -0.149144 0.438775
28.796400 16.031799 -0.921189 255 255 255 -0.910793 -0.323736 0.256223
29.036200 14.485100 1.404950 45 45 45 -0.887230 -0.460427 0.028790
30.455601 15.817900 6.153510 9 9 9 -0.918132 -0.277719 0.282675
29.675600 17.263000 -0.941221 10 10 10 -0.957634 0.270592 -0.098577
29.281200 16.253500 -0.672878 13 13 13 -0.895671 0.434794 -0.093418
29.186800 16.345200 2.030010 3 3 3 -0.962855 0.227147 0.145998
30.182800 19.115400 -0.989581 3 3 3 -0.955578 0.243672 -0.165816
29.525299 18.750799 0.510378 3 3 3 -0.935468 0.053152 -0.349392
28.981899 19.128201 2.455630 25 25 25 -0.943786 0.037878 -0.328380
29.471600 143.949997 5.876490 42 42 42 -0.033301 -0.277024 0.960286
31.034800 -26.004101 13.175400 101 101 101 0.549486 0.835223 -0.021619
30.890699 -26.018299 16.267401 95 95 95 0.520812 0.852950 0.035083
32.186798 -26.699100 17.123699 35 35 35 0.426440 0.904200 0.023920
30.881800 -26.147499 19.609400 30 30 30 0.440082 0.897889 0.011132
32.691399 -18.885700 -0.936558 29 29 29 -0.897681 -0.437329 0.053965
32.434601 -18.791901 -0.496376 5 5 5 -0.890057 -0.439729 0.120152
32.212101 -19.044001 1.652010 57 57 57 -0.861173 -0.400592 -0.312901
32.392200 -16.041599 5.388830 19 19 19 -0.999991 -0.003475 -0.002617
30.793600 -14.155500 -0.538236 76 76 76 -0.993720 0.111874 0.002380
30.963800 -14.282000 2.083240 9 9 9 -0.931793 0.343986 0.115910
31.862600 -14.890700 4.599030 13 13 13 -0.806658 0.347582 0.478006
31.747499 -15.326800 5.305500 4 4 4 -0.055481 -0.212016 -0.975690
30.949499 -13.618500 0.305375 114 114 114 -0.998534 0.047020 -0.026813
30.914301 -13.649400 1.080480 125 125 125 -0.984127 0.162325 0.071733
30.822100 -13.333400 3.300200 12 12 12 -0.050184 0.972652 0.226780
30.869801 -13.308700 5.136880 7 7 7 0.135327 0.976516 -0.167637
30.900801 -13.137800 7.089270 9 9 9 0.089153 0.995556 0.030341
30.799200 -10.819700 -1.046880 54 54 54 -0.997997 0.061424 -0.015141
30.796801 -10.862900 -0.914807 38 38 38 -0.998119 0.059159 -0.016101
30.799500 -10.820600 1.126920 25 25 25 -0.997957 -0.058303 -0.026144
31.027500 -9.474600 -1.120980 2 2 2 -0.984187 0.163168 -0.068939
30.897301 -9.732550 -0.724162 8 8 8 -0.994385 0.099286 0.036615
30.868299 -9.724130 1.064280 13 13 13 -0.964209 0.234521 -0.123695
30.883600 9.276860 1.959920 16 16 16 -0.190503 -0.627431 0.755010
32.371498 12.034700 -0.950090 64 64 64 -0.539803 -0.433539 0.721566
32.419701 11.960100 -0.891962 255 255 255 -0.551456 -0.420349 0.720557
31.094400 10.285500 2.805630 17 17 17 -0.124607 -0.593216 0.795342
31.119200 10.685800 3.186460 18 18 18 -0.123627 -0.617357 0.776908
32.027100 11.995800 6.319820 136 136 136 -0.986694 0.162477 -0.005993
31.963200 11.970900 8.733480 20 20 20 -0.964383 -0.234871 -0.121659
31.887199 11.987700 9.853550 47 47 47 -0.821769 -0.554568 -0.130961
31.775200 11.990100 12.360500 72 72 72 -0.644920 -0.760100 -0.079538
31.696899 12.141900 13.526800 43 43 43 -0.504283 -0.855824 0.115174
31.671301 11.949000 15.964100 25 25 25 -0.627210 -0.777642 -0.043369
31.536600 12.169100 17.128201 30 30 30 -0.631761 -0.775007 0.015550
31.518299 11.707400 20.784599 16 16 16 -0.800004 -0.599102 -0.032703
31.284500 11.932700 24.311600 24 24 24 -0.444260 -0.892201 -0.081304
31.265900 11.744200 26.839300 23 23 23 -0.452078 -0.891968 0.004271
31.260799 11.741600 27.885900 14 14 14 -0.458435 -0.888709 -0.005841
31.006901 11.956200 30.424400 23 23 23 -0.469776 -0.882617 -0.017241
31.034800 11.743700 31.563700 11 11 11 -0.508950 -0.860610 0.017903
31.004400 11.730700 33.998402 12 12 12 -0.545971 -0.837671 -0.014903
31.015600 11.467100 35.168999 11 11 11 -0.932151 -0.360774 -0.030603
30.989300 11.411500 37.612598 14 14 14 -0.725375 -0.685032 -0.067538
30.988800 11.187700 42.343498 8 8 8 -0.784612 -0.619482 -0.025014
31.021601 11.198100 44.778099 5 5 5 -0.427395 -0.902844 -0.046966
31.037399 11.158900 45.883801 7 7 7 -0.434442 -0.900034 -0.034620
30.811300 11.208300 48.409199 7 7 7 -0.439287 -0.897960 -0.026357
30.824499 11.212400 49.489601 7 7 7 -0.444892 -0.895342 -0.020823
31.238100 14.235100 -0.723178 22 22 22 -0.085301 -0.996335 -0.006424
30.945000 14.240600 2.463750 22 22 22 0.059913 -0.997430 0.039297
31.186399 12.266200 4.502130 6 6 6 -0.403632 -0.768994 0.495710
31.957100 12.661400 5.081490 135 135 135 -0.924123 -0.357757 0.134190
31.775101 12.634200 8.801210 19 19 19 -0.796442 -0.601303 -0.064139
31.770399 12.631800 9.813640 28 28 28 -0.784950 -0.593768 -0.176897
31.732000 12.477200 12.376900 26 26 26 -0.675250 -0.710461 -0.198199
31.530899 12.627100 14.187700 13 13 13 -0.506495 -0.856387 0.100314
31.537600 12.582600 15.876800 32 32 32 -0.531267 -0.844851 -0.063101
31.531799 12.259200 17.117001 31 31 31 -0.640478 -0.767570 0.024998
30.861700 12.671500 19.506701 3 3 3 -0.653020 -0.746646 -0.126824
31.275499 12.427500 23.189600 17 17 17 -0.922991 -0.382222 -0.044648
31.003201 12.542800 28.010700 16 16 16 -0.608183 -0.781890 -0.136972
30.967699 12.255000 30.434799 18 18 18 -0.578548 -0.815367 -0.021436
