ply
format ascii 1.0
element vertex 702
property float x
property float y
property float z
property uchar red
property uchar green
property uchar blue
property float nx
property float ny
property float nz
end_header
-21.128500 -13.802200 -1.305750 4 4 4 -0.218601 0.748097 0.626550
-20.805201 -13.854600 -0.769304 1 1 1 -0.121175 0.881722 0.455942
-21.119900 -13.685500 1.174000 21 21 21 -0.196749 0.944881 -0.261706
-21.084101 -14.350000 2.942140 45 45 45 0.099988 0.872864 0.477609
-20.967199 -14.504600 4.822530 12 12 12 -0.043470 0.997998 0.045949
-21.109200 -14.330200 6.826050 39 39 39 -0.135160 0.972806 0.188094
-21.083700 -14.508100 9.113120 5 5 5 -0.239318 0.792345 -0.561173
-21.113400 -14.296300 10.833100 43 43 43 -0.284812 0.940105 0.187308
-21.084299 -14.431900 12.841600 14 14 14 -0.156542 0.385563 -0.909305
-21.116400 -14.417700 16.105101 11 11 11 -0.101954 0.366478 -0.924824
-21.098101 -14.251400 17.598301 35 35 35 -0.242442 0.958031 0.152965
-21.133200 -14.237600 19.968100 16 16 16 0.060033 0.798971 -0.598366
-21.116899 -14.227600 21.329500 40 40 40 -0.195639 0.950586 0.241062
-21.130501 -14.199800 23.470900 17 17 17 0.002579 0.012576 -0.999918
-19.928200 -13.430400 25.191900 12 12 12 0.717222 0.694725 0.054314
-21.087799 -14.059600 26.979601 18 18 18 0.038178 0.097897 -0.994464
-21.127899 -14.050000 30.480600 20 20 20 -0.076977 0.607825 -0.790331
-21.101601 -13.428600 30.839899 12 12 12 -0.115072 0.936128 -0.332299
-20.906700 -11.820400 -2.158890 41 41 41 0.246817 0.114563 -0.962267
-20.183201 -10.848000 -0.533025 4 4 4 0.623910 0.780052 0.047490
-20.908501 -12.561400 2.014420 13 13 13 0.232517 -0.135483 0.963110
-20.686501 -10.752000 -2.235340 86 86 86 0.729842 -0.186243 -0.657757
-20.646799 -10.534600 -1.065670 11 11 11 0.394047 0.914971 -0.086920
-20.386801 -0.855891 -4.520400 77 77 77 0.218529 0.713225 0.665999
-20.403299 -0.804067 -4.536370 67 67 67 0.217210 0.709202 0.670710
-19.792900 7.398360 -2.582990 11 11 11 0.166678 -0.066970 0.983734
-20.247700 10.855800 1.140480 101 101 101 0.111955 -0.249017 -0.962007
-20.195999 12.071000 -2.592880 3 3 3 -0.089689 -0.319870 0.943207
-20.269300 11.975000 0.785618 89 89 89 0.256460 -0.524500 0.811867
-20.931299 11.255500 1.112410 12 12 12 0.387762 -0.011677 -0.921686
-20.967699 12.782400 2.816430 2 2 2 0.053836 -0.997013 0.055385
-20.941799 12.765800 4.832590 12 12 12 0.047762 -0.990660 -0.127716
-21.095600 12.675400 6.816120 32 32 32 0.043757 -0.999014 0.007558
-20.991699 12.793600 10.080800 70 70 70 0.056897 -0.997182 -0.048902
-21.135000 12.588500 11.371500 32 32 32 0.048436 -0.981299 -0.186297
-21.075399 12.949500 13.231600 21 21 21 0.023940 -0.941118 0.337230
-21.058800 13.351300 -2.526010 58 58 58 0.252913 -0.963095 -0.092107
-21.117300 13.387800 -1.174740 69 69 69 0.050994 -0.998695 -0.002707
-20.912001 13.252300 10.287000 2 2 2 -0.085214 -0.788803 -0.608710
-20.931900 18.149799 18.056700 25 25 25 -0.071434 -0.994742 0.073380
-20.926300 18.188499 20.321501 77 77 77 -0.127492 -0.985795 -0.109335
-21.084000 18.188400 20.828400 65 65 65 -0.121392 -0.992161 -0.029689
-21.131500 18.227600 23.087601 76 76 76 -0.155199 -0.987656 0.021208
-21.097700 18.287701 25.790899 63 63 63 -0.143878 -0.981751 -0.124357
-20.902000 18.301800 27.130199 7 7 7 -0.142038 -0.985571 0.092061
-21.004801 18.204700 28.823099 49 49 49 -0.148144 -0.988950 -0.005535
-21.120800 18.349100 31.269600 10 10 10 -0.134146 -0.971713 -0.194365
-21.001600 18.290001 34.088299 75 75 75 -0.146892 -0.988561 -0.034211
-21.124100 18.349001 35.431499 26 26 26 -0.159502 -0.981757 0.103497
-21.121300 18.345400 36.831402 39 39 39 -0.140896 -0.984774 -0.101828
-21.129000 18.396900 39.578201 8 8 8 -0.161478 -0.983510 -0.081440
-21.066999 18.341801 40.966900 45 45 45 -0.152619 -0.985462 0.074644
-21.124701 18.253201 43.079201 17 17 17 -0.123121 -0.992341 0.009994
-21.133801 18.397200 45.114399 16 16 16 -0.190092 -0.981730 0.008397
-21.021099 18.344299 47.923302 62 62 62 -0.152070 -0.988156 -0.020532
-21.125099 18.386801 49.272701 35 35 35 -0.154486 -0.986732 0.049936
-21.113899 18.283800 50.818699 30 30 30 -0.117550 -0.992816 0.022337
-20.916500 18.388300 53.437500 29 29 29 -0.141577 -0.983800 -0.109967
-21.009399 18.375099 56.192101 50 50 50 -0.153366 -0.988109 -0.010970
-20.920700 18.342699 57.589699 48 48 48 -0.148845 -0.988858 0.002358
-21.019300 18.382000 58.978500 62 62 62 -0.137003 -0.990488 -0.012794
-20.933399 18.397800 61.740799 42 42 42 -0.143164 -0.989679 -0.006355
-20.988300 18.351999 63.134399 42 42 42 -0.115372 -0.993272 0.010023
-20.933001 18.394800 65.882896 35 35 35 -0.143557 -0.989450 0.019498
-21.101801 18.402000 67.304298 63 63 63 -0.128602 -0.991569 -0.015881
-21.041700 18.394300 70.087502 60 60 60 -0.124286 -0.992230 0.005774
-20.885500 18.396200 71.413200 37 37 37 -0.127846 -0.991740 0.010374
-21.089300 18.387600 72.871399 51 51 51 -0.122726 -0.992439 0.002022
-20.892900 18.400101 75.612396 59 59 59 -0.138311 -0.990352 -0.008560
-21.098301 18.391899 78.430397 49 49 49 -0.123225 -0.992355 -0.006888
-21.084499 18.379499 79.004303 6 6 6 -0.124918 -0.991888 -0.023514
-21.052999 18.396999 81.815598 47 47 47 -0.125907 -0.992038 -0.002952
-20.715700 19.571699 90.189903 25 25 25 -0.611550 -0.788207 -0.068815
-20.723700 19.527800 92.234703 7 7 7 -0.605019 -0.793999 -0.059311
-21.008900 19.600000 93.037399 72 72 72 -0.587371 -0.808462 -0.037195
-21.070299 19.604700 95.865501 63 63 63 -0.568315 -0.822773 0.007911
-21.062599 19.545401 98.962898 51 51 51 -0.576157 -0.817265 -0.010981
-20.984699 19.521000 101.939003 69 69 69 -0.543274 -0.839166 0.025551
-18.742701 -25.628401 0.387816 70 70 70 0.998665 0.051534 -0.003634
-18.754000 -25.577499 0.816034 70 70 70 0.998940 0.043764 0.014286
-18.889200 -23.099701 0.613915 9 9 9 0.999626 0.020557 -0.018025
-18.890600 -23.161200 0.924058 9 9 9 0.999873 0.011874 0.010679
-18.885500 -22.398001 0.532779 25 25 25 0.998356 -0.041291 -0.039752
-18.885500 -22.629299 1.127290 23 23 23 0.999684 -0.009936 0.023090
-18.927601 -19.879101 0.101545 12 12 12 0.997973 0.061432 0.016639
-18.971800 -20.695999 1.891150 32 32 32 0.996847 0.054068 0.058067
-19.066401 -17.703300 0.040665 51 51 51 0.999698 0.007955 -0.023269
-18.955400 -17.646400 0.829198 7 7 7 0.987357 0.157257 -0.019908
-19.107401 -16.825300 0.133382 53 53 53 0.999199 0.011491 -0.038340
-19.122101 -16.794399 0.830068 55 55 55 0.997479 0.070963 0.000140
-18.834299 -15.804500 6.002070 11 11 11 0.289524 -0.217562 -0.932117
-19.132099 -15.731500 9.216280 7 7 7 0.038653 -0.123684 -0.991569
-17.998301 -15.856000 12.674300 67 67 67 0.666790 -0.238121 -0.706180
-17.992901 -16.010201 12.841500 67 67 67 0.569971 -0.298942 -0.765354
-19.052299 -15.711700 16.492399 69 69 69 0.017784 -0.006196 -0.999823
-18.175800 -15.106200 19.661501 66 66 66 0.384519 0.179341 -0.905529
-17.515900 -15.053500 23.516899 30 30 30 0.110792 -0.169666 -0.979254
-18.942101 -14.922400 27.007000 59 59 59 0.054554 -0.047106 -0.997399
-18.891500 -13.816300 -1.209460 3 3 3 0.392323 0.847694 0.357070
-19.095600 -14.112700 -0.869714 3 3 3 0.969329 0.204587 -0.136179
-18.887899 -14.368800 1.867650 3 3 3 0.744719 0.080798 -0.662470
-19.100100 -14.419800 4.215340 17 17 17 -0.096054 0.987502 0.124953
-19.127701 -14.441000 5.063580 20 20 20 0.216462 0.976264 0.007291
-19.119801 -14.247000 7.071480 39 39 39 0.697532 0.714980 0.047466
-19.133400 -14.827100 9.476150 25 25 25 -0.091915 0.279856 -0.955632
-19.077999 -14.218100 10.880000 45 45 45 0.714665 0.626898 0.310247
-19.115101 -14.776000 12.992100 57 57 57 -0.132844 -0.029332 -0.990703
-19.106800 -14.659900 16.490200 72 72 72 0.138971 -0.175032 -0.974706
-18.997499 -14.163000 17.634399 39 39 39 0.450068 0.884917 0.119833
-19.117701 -14.708200 20.002800 74 74 74 -0.090435 -0.146980 -0.984997
-19.114901 -14.140400 21.298800 35 35 35 0.432745 0.890175 0.142550
-19.093700 -14.655200 23.509100 91 91 91 0.261292 -0.214504 -0.941124
-19.131800 -14.117500 24.938999 25 25 25 0.652236 0.744815 0.140853
-18.911800 -14.821500 27.009399 35 35 35 0.036868 -0.022444 -0.999068
-19.082500 -14.271800 30.330799 0 0 0 0.229477 0.279313 -0.932376
-19.119101 -13.348900 30.839399 12 12 12 -0.060690 0.926572 -0.371190
-19.115999 -11.745900 -2.131990 40 40 40 0.173981 0.821079 -0.543654
-19.073299 -12.805500 1.712830 4 4 4 0.927880 -0.073412 -0.365580
-17.497601 -9.747320 -4.622500 116 116 116 -0.002479 0.829060 0.559155
-18.032101 -4.859750 -1.607780 14 14 14 0.331015 -0.233723 -0.914222
-18.667801 -3.792230 -2.049600 16 16 16 0.212906 -0.350667 -0.911978
-18.043100 6.461530 -2.718990 2 2 2 -0.019418 0.020158 0.999608
-18.471201 7.792220 -2.780580 34 34 34 -0.010989 0.036878 0.999259
-18.937300 10.932300 1.194320 45 45 45 0.018315 -0.256547 -0.966358
-19.082600 13.099000 -2.373470 92 92 92 -0.036878 -0.976963 0.210198
-19.002701 12.418600 0.739682 49 49 49 -0.243615 -0.368965 -0.896948
-19.107901 12.730000 1.828660 39 39 39 0.038722 -0.972269 0.230637
-18.983299 12.854500 2.831740 4 4 4 0.063818 -0.996727 0.049615
-18.971901 12.845800 4.841400 59 59 59 0.045827 -0.992219 -0.115767
-19.104900 12.760000 6.828410 38 38 38 0.040416 -0.998876 0.024757
-18.992901 12.891900 8.834600 118 118 118 0.034154 -0.999371 0.009593
-19.110600 12.901200 11.092300 36 36 36 0.081494 -0.980915 -0.176533
-19.073299 13.048500 13.221600 1 1 1 0.005221 -0.939426 0.342712
-19.061600 13.154000 -2.419020 104 104 104 -0.060778 -0.993227 0.099023
-19.092100 13.174500 -1.162900 128 128 128 -0.056677 -0.963131 0.262996
-17.207199 16.572701 98.929398 24 24 24 -0.013605 -0.999693 0.020693
-17.247101 16.524700 101.977997 37 37 37 0.002959 -0.999947 -0.009854
-17.659700 18.593800 16.191500 65 65 65 -0.095098 -0.980511 -0.171913
-18.996000 17.902300 17.676399 76 76 76 0.067292 -0.795342 -0.602414
-19.091999 17.991800 18.890499 34 34 34 -0.126200 -0.988130 0.087592
-18.997700 17.901100 21.079800 16 16 16 -0.114548 -0.993414 -0.002591
-19.113899 18.054501 23.025299 11 11 11 -0.124341 -0.982121 -0.141342
-18.923500 18.055300 25.788000 4 4 4 -0.118970 -0.973729 -0.194157
-19.117300 18.054300 27.188101 27 27 27 -0.143080 -0.987330 0.068611
-18.908300 17.900499 29.379801 6 6 6 -0.123005 -0.992404 0.002101
-19.114901 18.094801 31.328400 9 9 9 -0.130295 -0.984268 -0.119333
-19.135000 18.065599 34.117599 53 53 53 -0.122446 -0.980641 -0.152811
-18.911200 17.945101 34.825802 27 27 27 -0.130917 -0.991314 -0.012530
-18.920500 17.998301 37.038898 59 59 59 -0.132546 -0.991175 -0.001888
-19.120199 18.140200 39.590099 4 4 4 -0.121663 -0.985008 -0.122303
-19.022600 18.046301 41.036098 69 69 69 -0.118938 -0.991842 0.045864
-19.113800 17.993500 43.046299 20 20 20 -0.126642 -0.991929 -0.006159
-19.124800 18.140499 45.157299 17 17 17 -0.114216 -0.990462 -0.077074
-18.952700 18.110701 47.935799 33 33 33 -0.089115 -0.995072 -0.043476
-19.069300 18.084700 49.329800 61 61 61 -0.114915 -0.992680 0.037164
-19.101200 18.021299 51.054298 22 22 22 -0.141090 -0.989993 -0.002714
-18.987101 18.139799 53.472000 31 31 31 -0.065907 -0.997460 -0.027006
-18.943899 18.053101 54.883999 55 55 55 -0.121537 -0.992511 0.012248
-19.072201 18.035999 56.821098 8 8 8 -0.157976 -0.987422 -0.006510
-19.079000 18.133801 59.013401 53 53 53 -0.103113 -0.994667 -0.002316
-19.033600 18.134199 61.790699 56 56 56 -0.109498 -0.993977 -0.004390
-19.074499 18.080400 63.188702 39 39 39 -0.153207 -0.988171 0.006767
-19.094000 18.051399 64.827202 16 16 16 -0.193581 -0.981021 -0.011157
-18.937700 18.127800 67.290398 32 32 32 -0.131046 -0.991375 0.001497
-18.998699 18.139799 70.070999 28 28 28 -0.122157 -0.992491 -0.006309
-18.930700 18.118200 71.465500 58 58 58 -0.130062 -0.991506 -0.000609
-19.002600 18.141899 72.852203 65 65 65 -0.141184 -0.989977 0.003586
-19.037600 18.128799 75.630798 66 66 66 -0.157057 -0.987574 -0.005569
-19.088200 18.084499 77.041397 5 5 5 -0.206536 -0.978435 -0.002858
-18.938801 18.121201 79.081299 17 17 17 -0.138615 -0.990309 -0.008547
-18.943800 18.124100 81.841499 53 53 53 0.394837 0.910094 -0.125826
-16.282801 -23.802099 0.422932 33 33 33 -0.163792 0.209365 -0.964022
-16.110399 -23.806000 0.818212 35 35 35 -0.049773 0.156268 -0.986460
-16.349400 -21.052099 0.241821 46 46 46 -0.121606 0.894837 0.429510
-16.409100 -21.573900 1.639370 17 17 17 -0.085597 0.503214 -0.859912
-15.386200 -20.819799 1.585350 51 51 51 -0.101488 0.909874 -0.402281
-16.446100 -19.018200 6.050020 18 18 18 0.016934 -0.008543 -0.999820
-16.777000 -18.349300 6.041350 22 22 22 0.030500 -0.033834 -0.998962
-16.910101 -15.388400 1.676500 3 3 3 0.596792 0.556457 -0.578096
-15.978000 -16.784300 6.037970 22 22 22 0.023255 -0.051229 -0.998416
-16.356501 -15.077100 8.783610 4 4 4 -0.570930 0.499626 -0.651470
-16.958599 -15.360200 9.515620 19 19 19 0.215828 -0.128698 -0.967913
-17.128201 -15.516200 13.027700 75 75 75 0.270708 -0.096157 -0.957847
-17.094900 -15.449100 16.527000 63 63 63 0.004024 -0.031392 -0.999499
-17.125601 -15.244600 20.039200 84 84 84 0.122161 -0.022365 -0.992258
-17.022200 -15.005200 23.536100 51 51 51 0.095079 -0.092566 -0.991157
-16.939400 -14.857900 27.026400 21 21 21 0.005935 -0.113397 -0.993532
-16.472000 -14.359400 -0.377827 4 4 4 -0.090938 0.983267 0.157850
-17.131300 -13.551200 2.539260 17 17 17 -0.037283 0.659685 0.750617
-17.129700 -14.190300 2.990430 46 46 46 -0.015325 0.947410 0.319654
-17.134501 -14.269600 5.986800 4 4 4 -0.221079 0.939757 -0.260732
-17.098900 -14.166800 6.822860 51 51 51 -0.113020 0.992337 0.049930
-17.017401 -14.840100 9.501860 21 21 21 0.071150 -0.045105 -0.996445
-17.096201 -14.684100 11.823200 11 11 11 0.034285 0.931781 0.361399
-17.110399 -14.844800 13.029100 58 58 58 0.096406 -0.055448 -0.993796
-17.019300 -14.846900 16.529499 50 50 50 0.002621 -0.017941 -0.999836
-17.131100 -14.093000 17.665899 37 37 37 -0.033423 0.995465 0.089063
-17.014099 -14.845100 20.042299 83 83 83 -0.008484 0.003809 -0.999957
-16.941799 -14.157900 21.938900 2 2 2 -0.021109 0.970032 0.242057
-17.097300 -14.694200 23.539400 53 53 53 0.090293 -0.149508 -0.984629
-16.978800 -14.373600 26.189501 9 9 9 0.089314 0.994543 -0.053916
-17.090700 -14.799500 27.032600 38 38 38 -0.043619 -0.140605 -0.989105
-16.979601 -14.598200 30.261499 30 30 30 0.100115 0.396517 -0.912552
-17.129400 -13.290400 30.839500 15 15 15 -0.050188 0.743894 -0.666411
-17.086901 -11.658600 -2.067320 51 51 51 -0.041156 0.999131 -0.006578
-16.644699 -12.597600 2.183740 12 12 12 -0.021789 0.394704 0.918550
-17.099701 -9.468630 -4.549820 62 62 62 -0.109107 0.773794 0.623970
-17.115999 -4.982860 -1.516640 2 2 2 0.140832 0.015177 -0.989917
-17.042601 -4.845730 -1.533220 0 0 0 -0.044998 0.039050 0.998224
-16.886499 -4.687790 -1.143770 3 3 3 0.171230 -0.385921 -0.906501
-15.801500 -2.267050 -2.370760 11 11 11 0.098268 0.273635 0.956801
-16.529200 3.555780 -2.459390 20 20 20 -0.046148 0.066780 0.996700
-16.518801 7.537620 -2.811000 5 5 5 -0.047931 -0.072139 0.996242
-17.117399 11.002800 1.236490 49 49 49 0.044336 -0.257748 -0.965195
-16.243601 13.087200 -2.287520 87 87 87 -0.377520 -0.908985 0.176705
-17.060301 12.482000 0.740654 50 50 50 0.432980 -0.297923 -0.850747
-17.122101 12.494600 0.829354 76 76 76 0.590114 -0.413071 -0.693641
-16.937201 12.923300 2.828030 119 119 119 0.022200 -0.998125 0.057045
-17.125099 12.894600 5.077840 47 47 47 0.039035 -0.991277 -0.125878
-17.099501 12.841200 6.837670 37 37 37 0.040933 -0.998765 0.028147
-17.044500 13.001800 9.080850 17 17 17 0.045760 -0.998887 0.011471
-17.125299 12.857800 11.359400 34 34 34 0.034853 -0.968108 -0.248096
-16.972900 13.112900 13.065100 1 1 1 0.026435 -0.919679 0.391780
-17.123800 13.514300 -2.422020 94 94 94 0.143838 -0.989589 0.004957
-17.085600 13.554800 -1.166880 3 3 3 0.094152 -0.995546 0.004899
-16.523199 13.168800 13.280700 1 1 1 0.019717 -0.921426 0.388054
-15.699000 16.074900 17.510700 75 75 75 0.379111 -0.165651 -0.910403
-16.207300 16.386700 18.821600 26 26 26 -0.508983 -0.815328 -0.275999
-16.921900 17.063801 22.572300 61 61 61 -0.588091 -0.808446 -0.023775
-16.637800 16.776600 22.871201 3 3 3 -0.554359 -0.831741 0.029898
-17.012600 17.110901 24.821899 68 68 68 -0.582767 -0.812626 -0.004701
-15.890800 16.059299 27.291500 63 63 63 0.057532 -0.998302 0.009173
-15.892500 16.059500 29.104900 55 55 55 0.076366 -0.997022 0.010773
-15.891900 16.138399 31.271400 51 51 51 0.003530 -0.999890 -0.014432
-15.978100 16.101700 34.187901 48 48 48 0.060145 -0.998178 0.004786
-16.079300 16.080700 34.818501 41 41 41 0.087013 -0.995795 0.028645
-15.985000 16.147100 36.981098 95 95 95 0.031995 -0.999403 -0.013057
-16.057600 16.137699 39.735699 52 52 52 0.053890 -0.998544 -0.002221
-15.978600 16.137501 41.130402 48 48 48 0.056402 -0.998381 0.007352
-16.140100 16.217800 43.804699 39 39 39 -0.040345 -0.999148 0.008694
-16.150900 16.144800 45.306000 54 54 54 0.066807 -0.997760 -0.003574
-16.149599 16.141399 48.122002 44 44 44 0.102717 -0.994693 -0.006002
-16.186501 16.260599 49.379299 41 41 41 -0.000314 -0.999932 0.011654
-16.236799 16.147499 50.939602 21 21 21 0.108293 -0.994105 -0.005232
-16.358000 16.306000 53.479698 12 12 12 0.006522 -0.999727 -0.022457
-16.394100 16.300600 56.270000 29 29 29 0.019436 -0.999804 -0.003870
-16.325701 16.271099 57.691898 52 52 52 0.052748 -0.998587 0.006475
-16.471399 16.293200 58.997601 12 12 12 0.034029 -0.999341 0.012655
-16.551600 16.370800 61.776100 6 6 6 -0.005223 -0.999962 0.007001
-16.467300 16.368999 63.183399 24 24 24 -0.000484 -0.999965 0.008312
-16.604601 16.378500 65.929604 28 28 28 -0.023104 -0.999725 -0.003981
-16.645500 16.293501 67.380096 12 12 12 0.071918 -0.997375 -0.008438
-16.672300 16.401400 70.081299 16 16 16 -0.030031 -0.999549 0.000242
-16.654100 16.382401 71.493896 47 47 47 -0.001816 -0.999997 0.001300
-16.772301 16.373199 72.877403 7 7 7 0.022842 -0.999730 0.004187
-16.649200 16.375500 74.958801 15 15 15 0.021324 -0.999714 0.010833
-16.890699 16.445400 78.408501 17 17 17 -0.040958 -0.999161 -0.000067
-16.649500 16.372999 79.123497 17 17 17 0.040367 -0.999120 -0.011385
-16.674999 16.354799 81.889503 50 50 50 0.066065 -0.997808 -0.003794
-16.915600 16.424999 84.635597 28 28 28 0.016024 -0.999854 0.005869
-16.926500 16.434700 85.949303 40 40 40 0.021836 -0.999634 0.015944
-16.888901 16.396400 88.792198 54 54 54 0.075318 -0.997140 -0.006204
-16.940300 16.445900 89.526497 23 23 23 0.042623 -0.998644 0.029895
-16.898100 16.484200 91.584702 33 33 33 0.025576 -0.999516 0.017720
-16.989500 16.532400 93.068298 14 14 14 -0.017423 -0.999737 0.014940
-16.961399 16.543600 95.908997 33 33 33 0.000993 -0.999926 -0.012114
-16.920700 16.380199 97.294701 15 15 15 0.102338 -0.994738 0.004861
-17.119600 16.487801 98.982803 47 47 47 0.039963 -0.999059 0.016844
-16.189100 16.559200 101.054001 17 17 17 -0.000502 -0.999980 -0.006286
-16.404400 18.394400 16.222799 63 63 63 -0.451553 -0.833368 -0.318745
-16.935699 17.648899 17.683399 80 80 80 -0.174516 -0.714238 -0.677796
-17.128700 17.227800 24.741501 0 0 0 -0.574667 -0.818387 0.000402
-13.315800 -23.349100 0.482045 48 48 48 0.399184 0.223265 -0.889272
-13.319500 -23.425600 0.829753 53 53 53 0.230412 0.156508 -0.960425
-14.236200 -21.151199 0.291389 5 5 5 0.016809 0.993043 -0.116551
-15.044800 -21.354200 1.478600 2 2 2 -0.260445 0.948209 0.181845
-13.751100 -20.767300 0.081188 66 66 66 -0.010681 0.960878 0.276766
-13.913900 -20.728800 1.676120 30 30 30 0.014069 0.893345 -0.449151
-14.295500 -19.045000 6.086610 19 19 19 0.009897 -0.015011 -0.999838
-13.784500 -18.459299 1.789740 31 31 31 0.739801 -0.070842 0.669086
-14.765900 -18.201700 6.077800 34 34 34 0.015734 -0.012149 -0.999802
-14.389700 -15.696500 -0.360148 7 7 7 0.696138 -0.421023 0.581490
-14.777100 -15.286700 1.376450 2 2 2 0.333100 -0.234992 -0.913139
-15.077600 -15.838700 6.050510 31 31 31 0.084153 -0.133517 -0.987467
-15.104100 -16.313999 9.269740 7 7 7 0.214271 -0.104765 -0.971140
-13.902700 -14.870600 12.082800 55 55 55 0.991919 -0.022728 -0.124822
-13.888500 -15.703800 12.921500 43 43 43 0.381085 -0.273799 -0.883067
-14.901800 -15.546700 16.563400 85 85 85 0.037914 -0.045254 -0.998256
-13.405500 -14.862900 23.605499 67 67 67 0.122694 -0.233139 -0.964672
-14.914100 -14.237100 -1.118760 11 11 11 -0.338671 0.920364 -0.195529
-15.127300 -14.261200 0.827844 17 17 17 -0.180355 0.923002 0.339912
-15.109400 -14.102500 2.972520 46 46 46 0.047007 0.931014 0.361944
-15.106600 -14.279500 4.832360 14 14 14 -0.046979 0.995740 0.079341
-15.124100 -14.082900 6.837540 46 46 46 -0.043785 0.965637 0.256181
-15.132200 -14.056300 10.325100 44 44 44 -0.303525 0.855521 0.419472
-14.650100 -13.712200 10.921600 17 17 17 -0.227176 0.972866 -0.043854
-15.092700 -13.950100 13.055500 15 15 15 -0.158097 0.975076 -0.155667
-15.125600 -14.054000 15.271000 7 7 7 -0.319798 0.947142 0.025513
-15.014900 -13.674200 17.224600 24 24 24 -0.330392 0.941240 0.070058
-15.124800 -13.811200 20.071699 18 18 18 -0.216137 0.852647 -0.475688
-14.162300 -14.447100 22.799000 21 21 21 0.880317 -0.226563 -0.416786
-15.108900 -13.764800 23.576500 20 20 20 -0.129064 0.613403 -0.779153
-14.437800 -13.189800 26.756800 13 13 13 0.769167 0.635960 0.062747
-15.116300 -13.705800 27.074600 21 21 21 -0.220878 0.656576 -0.721194
-15.067500 -13.663800 30.011299 16 16 16 -0.162332 0.973490 -0.161140
-15.091000 -13.177200 31.082701 11 11 11 -0.110987 0.953956 -0.278656
-14.998400 -12.108000 -1.187490 1 1 1 -0.031904 0.722005 0.691152
-14.402800 -12.586300 -1.168700 2 2 2 -0.089472 0.370423 0.924544
-14.885100 -11.957700 2.010730 5 5 5 0.044981 0.310789 0.949414
-14.774600 -9.284460 -2.193740 14 14 14 -0.084027 0.211022 0.973863
-15.056900 -4.362610 -1.715590 60 60 60 0.145091 0.576385 0.804195
-15.046200 -2.236670 -2.357890 13 13 13 0.074568 0.224571 0.971601
-13.562300 0.949468 -2.291090 11 11 11 0.170100 -0.489139 -0.855458
-14.425300 3.949250 -2.359230 3 3 3 -0.069005 0.139238 0.987852
-14.756800 6.467350 -2.640730 1 1 1 -0.064914 0.022545 0.997636
-14.995800 7.234770 -2.706890 3 3 3 -0.053361 -0.038885 0.997818
-13.607700 9.341130 -2.514370 20 20 20 -0.020035 -0.079536 0.996631
-15.104500 11.080000 1.240520 56 56 56 0.007068 -0.198358 -0.980104
-15.122200 12.247400 -1.873830 98 98 98 -0.452313 -0.797421 0.399415
-15.122700 12.564500 0.792183 61 61 61 0.042404 -0.996940 0.065671
-14.972300 11.999700 1.290630 55 55 55 0.099910 -0.015284 -0.994879
-14.964600 12.752600 3.029740 7 7 7 -0.045619 -0.998678 0.023707
-14.994900 12.777500 4.838090 45 45 45 -0.054461 -0.998208 -0.024786
-15.012800 12.791700 6.837250 40 40 40 -0.027378 -0.999534 0.013490
-15.067200 12.804200 9.083700 42 42 42 0.010869 -0.999651 0.024066
-15.046100 12.817200 11.073800 39 39 39 0.037389 -0.998864 -0.029553
-14.139400 14.344300 -2.000820 17 17 17 0.999707 -0.011935 -0.021052
-14.135100 13.396900 0.774263 48 48 48 0.994331 -0.101851 0.030549
-14.135500 13.397300 0.823319 52 52 52 0.994356 -0.102420 0.027675
-14.163800 13.154900 2.825380 52 52 52 0.893206 -0.449638 -0.002830
-14.199300 13.154200 4.832860 52 52 52 0.827449 -0.555813 0.079996
-14.235800 13.186900 6.839010 51 51 51 0.910559 -0.411658 0.037690
-14.271600 13.185300 8.842100 48 48 48 0.934965 -0.353022 0.034877
-14.385300 14.401600 12.563900 45 45 45 0.993155 -0.068406 0.094678
-15.116300 13.173300 13.376200 61 61 61 0.234487 -0.951523 0.199045
-14.156400 15.179100 -2.359340 18 18 18 0.961576 -0.188835 -0.199282
-14.180600 15.204500 -1.179220 20 20 20 0.971330 -0.199167 -0.129810
-14.217100 15.166300 1.291380 40 40 40 0.838006 0.438639 -0.324565
-14.244300 15.155700 2.828780 43 43 43 0.831820 -0.541709 -0.120946
-14.278400 15.190800 4.839520 44 44 44 0.885966 -0.463739 -0.003184
-14.313500 15.187900 6.830290 44 44 44 0.886497 -0.461273 0.036760
-14.385200 15.340000 10.421000 41 41 41 0.859916 -0.499405 0.105544
-14.385500 15.185800 10.825200 39 39 39 0.973549 -0.226617 0.029092
-14.789800 15.184500 13.326200 13 13 13 0.600756 -0.591407 0.537894
-14.792200 16.928101 14.839500 77 77 77 -0.111833 -0.950933 0.288479
-15.108600 16.146299 17.542000 80 80 80 -0.040671 -0.468869 -0.882331
-15.108500 16.104500 18.974701 41 41 41 0.088696 -0.992199 0.087604
-15.085800 16.037399 20.834600 87 87 87 0.087888 -0.945346 -0.314001
-15.092400 16.124201 23.138901 54 54 54 0.017659 -0.999681 -0.018047
-14.886100 16.103399 25.402300 65 65 65 0.043734 -0.999030 -0.005044
-15.038000 16.142900 27.290001 63 63 63 0.053389 -0.996508 0.064196
-15.097200 16.083599 29.087000 60 60 60 0.026058 -0.999519 0.016820
-15.121500 16.148300 31.466700 87 87 87 0.034145 -0.996661 -0.074167
-15.106900 16.091101 32.882198 13 13 13 0.053978 -0.998477 0.011438
-15.098300 16.120899 34.833801 37 37 37 0.037495 -0.999291 0.003437
-15.089300 16.149900 37.052299 53 53 53 0.036372 -0.999235 0.014388
-15.093700 16.152500 39.849400 51 51 51 0.033855 -0.998782 0.035896
-14.933500 16.100901 41.188099 3 3 3 0.033135 -0.999291 -0.017891
-15.056100 16.150000 43.165401 18 18 18 0.027408 -0.999110 -0.032062
-15.116900 16.337799 45.220901 6 6 6 0.079779 -0.996446 -0.027033
-15.083800 16.341299 47.992100 13 13 13 0.059012 -0.997415 -0.041002
-15.065200 16.320000 49.386501 33 33 33 0.069049 -0.996696 0.042770
-15.116500 16.250401 50.836201 77 77 77 0.073157 -0.997290 0.007826
-15.068500 16.401600 53.526100 7 7 7 0.046189 -0.990032 -0.133050
-15.118000 16.290400 54.940399 54 54 54 0.070748 -0.996684 0.040186
-14.938200 16.257000 56.833801 7 7 7 0.028824 -0.998607 -0.044199
-15.071000 16.400400 59.088299 29 29 29 0.018776 -0.999749 -0.012204
-15.082400 16.329599 61.884201 62 62 62 0.026366 -0.999264 0.027875
-15.101300 16.389601 63.225201 42 42 42 0.003248 -0.999496 0.031580
-15.097900 16.344299 65.266098 3 3 3 0.013867 -0.999225 -0.036839
-15.090800 16.335100 67.442200 47 47 47 0.023187 -0.999709 -0.006716
-15.006300 16.282400 68.817398 12 12 12 0.027060 -0.999556 -0.012441
-15.069000 16.348801 71.557899 30 30 30 0.041889 -0.997328 0.059849
-15.102200 16.343700 72.982498 34 34 34 0.027405 -0.999413 0.020576
-14.956700 16.349199 75.738503 29 29 29 0.026747 -0.999537 0.014506
-14.931000 16.401100 77.092201 33 33 33 0.023383 -0.998943 0.039569
-15.038600 16.393000 79.854897 31 31 31 0.045719 -0.998667 0.023962
-15.058300 16.370701 81.928703 30 30 30 0.014168 -0.999893 -0.003521
-15.080600 16.394100 83.276497 24 24 24 0.019198 -0.999802 -0.005169
-15.102600 16.458900 85.992203 35 35 35 0.039781 -0.998885 0.025433
-15.040300 16.597300 87.475899 26 26 26 0.044916 -0.998885 -0.014568
-15.119100 16.475000 88.825203 35 35 35 0.046394 -0.998919 0.002784
-14.991800 16.499001 90.974998 23 23 23 0.035634 -0.998811 -0.033254
-15.099700 16.576000 93.133202 47 47 47 0.046782 -0.998740 0.018150
-15.004500 16.595600 95.182899 33 33 33 0.050319 -0.998611 0.015594
-14.899800 16.520300 97.274300 29 29 29 0.032656 -0.999462 -0.002876
-15.082600 16.552999 99.017097 54 54 54 0.022389 -0.999702 0.009717
-15.040600 16.588400 101.084999 15 15 15 0.050974 -0.998661 -0.008832
-14.279900 17.381901 -2.070590 2 2 2 0.998560 -0.003378 -0.053532
-14.290600 17.173599 -0.923080 3 3 3 0.998623 0.051450 -0.010213
-13.404800 18.435400 1.021700 7 7 7 -0.473392 -0.726395 0.498248
-14.894600 17.390200 17.544399 1 1 1 0.000810 0.044620 -0.999004
-14.936000 17.480400 20.421301 4 4 4 -0.114790 -0.052796 -0.991986
-14.648900 31.005699 -1.684580 30 30 30 0.682047 0.211751 -0.699981
-12.287200 -25.906200 0.780085 43 43 43 0.207778 -0.007190 -0.978150
-12.453300 -25.920000 0.820346 31 31 31 0.216894 -0.040486 -0.975355
-12.413300 -24.480600 0.676875 83 83 83 0.292473 -0.114019 -0.949452
-12.531400 -24.484699 0.826166 82 82 82 0.227153 -0.130820 -0.965033
-13.025000 -22.377600 0.312191 14 14 14 0.598275 0.508825 -0.619003
-12.625000 -22.009399 1.045490 0 0 0 0.254971 0.354146 -0.899761
-12.455400 -19.069700 -0.322236 41 41 41 0.869281 -0.253958 0.424095
-12.755900 -19.162500 6.124750 5 5 5 0.017077 -0.021525 -0.999622
-12.045200 -18.490999 -0.332319 20 20 20 0.909921 -0.186658 0.370409
-12.335800 -18.477900 1.926220 3 3 3 0.169384 0.049495 -0.984307
-13.100100 -17.499001 6.094030 28 28 28 -0.010742 -0.030755 -0.999469
-12.800000 -15.065200 -0.279675 3 3 3 0.940276 0.243776 0.237600
-12.793600 -15.808400 1.904240 2 2 2 0.105350 0.088889 -0.990454
-13.074400 -15.748200 6.079360 43 43 43 -0.014563 -0.009870 -0.999845
-13.130100 -16.146299 9.589140 46 46 46 -0.093514 -0.032660 -0.995082
-13.027300 -15.899700 13.106300 71 71 71 0.073419 -0.041843 -0.996423
-12.171200 -15.444500 16.611200 99 99 99 0.068788 -0.161037 -0.984548
-12.691800 -14.876600 19.788200 27 27 27 0.690777 0.049788 -0.721352
-13.134700 -14.899800 23.611099 69 69 69 0.227262 -0.164505 -0.959838
-12.971100 -14.148800 -1.120760 13 13 13 0.634312 0.773000 -0.010922
-13.105200 -14.186500 0.822534 18 18 18 0.322617 0.943327 -0.077798
-13.070600 -13.974700 2.970740 28 28 28 0.165754 0.838358 0.519308
-13.108500 -14.519600 6.081210 33 33 33 -0.020006 0.183433 -0.982829
-13.127000 -14.000300 6.832420 51 51 51 0.147445 0.988303 0.038957
-12.994800 -14.802800 9.583430 38 38 38 0.044777 -0.093810 -0.994583
-13.015900 -14.205500 11.433100 13 13 13 0.200037 0.943802 0.263104
-13.103600 -14.817100 13.100700 84 84 84 0.077648 -0.042000 -0.996096
-13.113000 -14.101300 16.534800 12 12 12 -0.072788 0.066780 -0.995109
-13.108600 -13.919500 17.791500 48 48 48 0.128649 0.939630 0.317088
-12.886700 -14.036300 19.137199 2 2 2 0.195261 0.971878 0.131627
-13.118100 -13.899200 21.458000 47 47 47 0.214139 0.960218 0.179236
-12.989000 -14.845100 23.613001 72 72 72 0.212629 -0.115549 -0.970277
-13.083100 -13.865100 25.084200 39 39 39 0.202227 0.931123 0.303502
-13.084700 -14.696800 27.112499 91 91 91 0.182945 -0.244339 -0.952276
-13.127600 -14.597400 30.627001 93 93 93 0.042935 -0.041475 -0.998217
-13.117000 -13.157400 30.841200 21 21 21 -0.070187 0.835434 -0.545090
-13.115500 -11.489100 -1.566230 39 39 39 -0.118280 0.625507 0.771201
-13.046000 -12.051000 -1.166960 2 2 2 -0.097933 0.319193 0.942616
-12.969600 -12.664900 2.289370 12 12 12 -0.209543 0.398891 0.892736
-12.960400 -9.378720 -2.143110 12 12 12 -0.157539 0.314430 0.936117
-12.043800 -7.296050 -2.185880 22 22 22 0.002266 -0.043963 0.999031
-13.025500 -3.916730 -1.317500 3 3 3 -0.240177 0.805858 0.541210
-11.198600 -3.660700 -0.939004 1 1 1 -0.095112 0.836936 0.538973
-12.698500 -1.821700 -2.302210 11 11 11 0.203087 0.293997 -0.933982
-11.361200 -0.850006 -1.009320 0 0 0 -0.092733 0.088791 0.991724
-13.117900 0.918413 -2.284070 16 16 16 0.214145 -0.500019 -0.839120
-12.308500 -0.703308 -1.159790 3 3 3 -0.087384 0.052183 0.994807
-11.795000 0.601191 1.501730 1 1 1 0.504965 0.845596 -0.173139
-12.540900 1.497810 -2.296920 11 11 11 -0.038519 0.374698 0.926346
-11.402000 3.075180 -1.158510 28 28 28 0.318294 0.947885 0.014270
-12.827100 3.581700 -2.393480 10 10 10 0.197952 -0.163138 -0.966541
-11.907400 3.243590 -1.062460 9 9 9 0.353904 0.925458 0.135201
-12.978200 5.321770 -2.507740 8 8 8 -0.012896 0.092689 0.995612
-13.092500 8.027110 -2.660010 50 50 50 -0.025195 -0.132684 0.990838
-12.923000 9.160860 -2.512020 14 14 14 -0.019512 -0.073867 0.997077
-11.969900 10.814500 0.044980 21 21 21 -0.504657 -0.619648 -0.601130
-12.944200 13.000100 -1.566600 5 5 5 0.459461 -0.653781 0.601221
-13.075000 12.238000 0.244068 4 4 4 0.092413 -0.162054 0.982445
-12.988200 13.176400 -1.579940 6 6 6 0.263869 0.195951 0.944445
-12.893400 13.245300 -1.022190 11 11 11 -0.236125 -0.971441 0.023400
-13.115600 13.170600 1.784020 98 98 98 0.103881 -0.804743 -0.584464
-12.949100 15.443100 -2.368520 66 66 66 0.152927 -0.985128 -0.078339
-12.546700 15.468900 -1.158570 68 68 68 -0.010632 -0.986052 0.166095
-12.931300 15.459600 1.589310 97 97 97 0.159397 -0.955882 0.246744
-13.097000 15.498000 2.835670 3 3 3 0.046866 -0.998841 0.010930
-13.100100 15.500600 4.816730 6 6 6 0.042329 -0.999078 -0.007160
-13.096800 15.495400 6.829000 93 93 93 0.043663 -0.999044 -0.002346
-13.095900 15.532200 8.825050 46 46 46 0.052747 -0.998402 0.020301
-13.089200 15.364100 11.764000 38 38 38 0.046867 -0.979769 -0.194568
-13.091600 15.642500 13.425300 33 33 33 -0.076994 -0.935772 0.344098
-13.123200 17.069500 14.842400 9 9 9 0.033160 -0.996066 -0.082173
-12.984400 16.119801 17.634100 64 64 64 0.037657 -0.220633 -0.974630
-13.042700 16.149401 19.041599 87 87 87 0.011674 -0.993968 0.109048
-13.089400 16.120600 20.822701 91 91 91 -0.009138 -0.971509 -0.236826
-13.103100 16.135300 23.283800 87 87 87 0.023044 -0.999536 -0.019906
-13.115300 16.147800 26.067200 81 81 81 0.023700 -0.999567 -0.017423
-13.114800 16.146099 27.376600 19 19 19 0.026101 -0.999656 -0.002386
-13.120800 16.152000 29.017799 64 64 64 0.021581 -0.999766 0.001305
-13.120200 16.148500 32.231800 18 18 18 0.016281 -0.999860 -0.003968
-13.047200 16.142401 32.923599 3 3 3 0.025980 -0.999505 -0.017764
-13.085600 16.145500 35.004601 6 6 6 0.027012 -0.999410 -0.021227
-13.083100 16.140301 37.747101 2 2 2 0.058817 -0.996088 -0.065945
-12.950000 16.350700 39.740501 22 22 22 -0.037384 -0.996471 -0.075152
-13.094000 16.317101 41.129902 46 46 46 0.047999 -0.997589 0.050131
-13.071200 16.246099 42.874199 23 23 23 0.021981 -0.999686 -0.011997
-13.129700 16.401501 45.279800 15 15 15 0.018719 -0.999450 -0.027369
-12.906700 16.289801 47.417198 16 16 16 -0.008519 -0.999690 0.023375
-12.904000 16.285200 49.076199 13 13 13 0.011304 -0.999152 -0.039599
-12.912100 16.377199 50.946800 4 4 4 0.003630 -0.999924 -0.011815
-12.897200 16.315300 53.111500 8 8 8 -0.029142 -0.998519 0.045945
-12.969400 16.319700 56.023602 6 6 6 -0.012322 -0.998816 0.047054
-12.919800 16.341101 56.951900 3 3 3 0.028984 -0.999055 -0.032403
-13.000200 16.399000 59.339401 19 19 19 0.025359 -0.998943 -0.038335
-13.058800 16.300400 61.422100 5 5 5 -0.027882 -0.998297 0.051235
-12.734400 16.394300 64.226303 4 4 4 0.034936 -0.999271 0.015408
-13.039300 16.401100 64.888000 17 17 17 0.029279 -0.999324 -0.022211
-13.128300 16.382799 67.536697 11 11 11 -0.024095 -0.999525 -0.019224
-13.127200 16.379700 69.673500 3 3 3 -0.030077 -0.999507 0.009030
-13.077600 16.443800 72.462097 4 4 4 -0.052393 -0.998541 -0.013051
-13.076800 16.442200 73.142197 13 13 13 -0.078512 -0.996749 -0.018117
-13.099900 16.555099 75.808296 8 8 8 -0.034757 -0.999381 0.005498
-11.662400 16.144899 78.563103 50 50 50 -0.280836 -0.959652 -0.014096
-11.774600 16.209801 79.238701 26 26 26 -0.266963 -0.963556 0.017047
-11.910400 16.270300 82.656898 41 41 41 -0.256712 -0.966487 0.001221
-11.940300 16.310801 83.317200 69 69 69 -0.279966 -0.960008 0.002043
-12.923600 16.535400 86.041298 1 1 1 -0.168480 -0.985704 0.001281
-12.983100 16.568399 86.890404 1 1 1 -0.168151 -0.985761 0.000262
-13.106800 16.594900 90.628799 13 13 13 -0.107496 -0.993722 0.031012
-11.918000 16.274200 91.074997 31 31 31 -0.281175 -0.959552 -0.014197
-12.139600 16.356001 93.198303 36 36 36 -0.290317 -0.956854 -0.012135
-11.944400 16.307301 95.236603 33 33 33 -0.342585 -0.939487 0.000233
-12.225300 16.340000 97.320702 22 22 22 -0.243085 -0.969703 0.024198
-12.203800 16.396000 99.050400 53 53 53 -0.234168 -0.972194 -0.001934
-12.246300 16.365400 101.268997 27 27 27 -0.304055 -0.952638 -0.005586
-13.099800 18.451000 1.038510 8 8 8 -0.013121 -0.916187 0.400535
-12.063100 17.160999 16.190399 0 0 0 0.029932 -0.982540 0.183628
-13.026200 17.162701 17.508699 2 2 2 -0.010483 -0.092514 -0.995656
-11.264900 22.022200 -1.275930 0 0 0 -0.634469 -0.366003 0.680802
-12.593100 22.219900 0.034302 1 1 1 0.326247 0.009778 0.945234
-11.940100 23.341700 -0.923201 0 0 0 -0.430362 -0.200992 0.879995
-12.205500 25.334900 -0.621466 1 1 1 0.284036 0.123093 0.950879
-10.164300 -22.977699 0.590376 5 5 5 -0.266676 0.905165 0.331000
-11.074200 -24.370600 1.270670 33 33 33 -0.538749 0.468373 0.700269
-10.019600 -22.650600 0.737712 22 22 22 -0.141284 0.718211 0.681331
-10.018500 -22.648100 0.830312 51 51 51 -0.110034 0.666964 0.736920
-10.008900 -20.500099 0.386897 39 39 39 0.492917 0.583619 -0.645308
-11.068500 -19.352301 1.936410 11 11 11 0.243398 0.099338 -0.964826
-9.159360 -18.884199 6.180070 29 29 29 0.020886 -0.012824 -0.999700
-10.656200 -18.797400 1.897330 44 44 44 0.439682 0.217637 -0.871386
-10.588500 -18.249399 6.148550 38 38 38 0.026670 -0.048103 -0.998486
-10.734700 -14.873900 -0.393833 55 55 55 0.140266 0.374910 -0.916388
-10.990300 -15.352100 2.181640 13 13 13 0.156871 -0.082806 -0.984142
-11.022900 -16.425100 6.131760 18 18 18 0.027174 -0.100450 -0.994571
-11.130200 -16.632601 9.643140 46 46 46 0.140002 -0.163789 -0.976510
-11.135000 -15.398700 13.131300 83 83 83 0.013583 -0.067351 -0.997637
-11.128400 -15.313200 16.631001 96 96 96 0.010689 -0.033471 -0.999382
-11.032100 -14.944600 20.136499 27 27 27 -0.059156 -0.221896 -0.973274
-10.973800 -14.352100 -1.007630 8 8 8 0.144120 0.837262 -0.527467
-11.028600 -14.128300 0.826517 9 9 9 0.169692 0.972835 0.157471
-11.127400 -13.928000 3.040820 60 60 60 0.093105 0.895261 0.435705
-10.911200 -14.652700 5.629740 18 18 18 0.871193 0.477877 -0.112501
-11.055900 -14.617300 8.186590 20 20 20 -0.116347 0.836888 0.534866
-10.991000 -14.801400 9.625430 21 21 21 -0.031668 0.036203 -0.998843
-11.110000 -13.877200 11.091200 54 54 54 -0.036455 0.998103 0.049615
-10.935300 -14.846800 13.133300 88 88 88 0.066417 -0.100960 -0.992671
-11.119600 -14.671500 16.635000 11 11 11 0.049775 -0.104989 -0.993227
-11.113000 -13.851400 17.777100 40 40 40 -0.024573 0.933668 0.357296
-11.073400 -14.845100 20.128599 16 16 16 -0.061919 -0.231796 -0.970792
-11.110000 -13.994100 22.173201 2 2 2 -0.073021 0.989211 0.127004
-11.097900 -13.979700 23.084101 2 2 2 -0.067801 0.972877 -0.221166
-11.050800 -13.959100 25.736601 4 4 4 -0.084829 0.993996 0.069110
-11.058000 -13.932800 26.832199 4 4 4 -0.018666 0.914380 -0.404426
-11.122800 -14.498300 30.653400 90 90 90 0.016794 -0.091367 -0.995676
-11.129400 -13.090300 30.841400 18 18 18 -0.013288 0.704487 -0.709593
-11.132700 -11.402800 -1.272130 33 33 33 -0.168218 0.609963 0.774369
-10.930600 -12.044200 -1.135950 1 1 1 0.316098 0.006660 -0.948703
-11.113900 -12.656400 2.334480 8 8 8 -0.017196 0.392245 0.919700
-9.199420 -12.661300 16.151600 14 14 14 0.436298 0.643450 0.628980
-10.908600 -8.363480 -2.136880 20 20 20 -0.026583 0.056448 0.998052
-10.414300 -6.747250 -2.170630 28 28 28 0.053893 -0.052294 0.997176
-10.314000 -5.197720 -1.128270 2 2 2 0.331536 -0.363635 0.870548
-11.061500 -3.129660 -1.893420 9 9 9 -0.096204 0.919940 0.380072
-11.034500 -3.347890 -1.080390 3 3 3 -0.074008 0.959476 0.271898
-11.044300 -2.812070 -2.290930 17 17 17 -0.103133 0.374005 0.921675
-10.955900 -0.958120 -0.815687 9 9 9 0.433999 0.565100 0.701646
-11.131400 -0.200913 -1.265870 0 0 0 0.328012 -0.271440 -0.904836
-10.892400 -0.842497 -0.808908 25 25 25 0.336072 0.284422 0.897864
-11.005000 1.244470 -2.257820 17 17 17 -0.018904 0.067839 0.997517
-10.894900 2.894020 -0.782323 35 35 35 0.318060 0.948006 0.011088
-11.009100 3.314220 -2.347620 13 13 13 0.164891 0.636853 0.753146
-10.944500 6.448900 -2.524500 3 3 3 -0.023380 0.066957 0.997482
-10.928100 7.830270 -2.653690 25 25 25 -0.006894 -0.170013 0.985418
-11.119800 9.192950 -2.477060 15 15 15 -0.201465 -0.359758 0.911036
-10.910900 9.370970 -1.159490 26 26 26 0.981963 -0.186293 0.032313
-10.497100 11.283900 -2.306640 19 19 19 0.063735 -0.403804 -0.912623
-11.101500 11.261800 -0.274413 19 19 19 0.889554 0.422890 0.172796
-10.885600 13.595000 -2.276860 35 35 35 0.726022 -0.580307 -0.368965
-11.049200 14.995900 -0.750840 2 2 2 0.808405 0.537867 -0.239124
-11.087800 13.255500 1.777670 96 96 96 0.055276 -0.557384 -0.828413
-10.887100 15.501500 -2.377820 32 32 32 0.157329 -0.333894 -0.929388
-10.888200 15.543100 0.390437 113 113 113 0.482347 -0.862821 0.151264
-11.045300 15.189900 1.790140 61 61 61 0.180195 -0.979288 -0.092330
-11.098000 15.589900 2.827150 4 4 4 0.047838 -0.995150 0.085957
-11.104000 15.596900 4.830230 6 6 6 0.046256 -0.998929 -0.000612
-11.090900 15.577100 6.819780 95 95 95 0.046283 -0.998922 -0.003514
-11.092200 15.617600 8.816210 47 47 47 0.042063 -0.999078 0.008639
-11.113100 15.396200 11.836300 44 44 44 0.094204 -0.978082 -0.185690
-11.101200 15.794200 13.374400 2 2 2 0.028216 -0.903041 0.428626
-11.111900 17.147499 14.880700 10 10 10 0.051032 -0.998547 -0.017306
-11.062400 16.250299 17.601900 83 83 83 -0.075636 -0.256994 -0.963449
-11.108900 16.186899 19.086201 85 85 85 0.089939 -0.993642 0.067730
-11.090900 16.201500 20.829599 85 85 85 0.111590 -0.990628 -0.078770
-11.097600 16.209200 22.824301 83 83 83 0.060194 -0.998150 0.008578
-11.133600 16.217100 24.816299 69 69 69 0.055811 -0.998394 0.009688
-11.112200 16.226299 27.093800 67 67 67 0.063876 -0.997802 0.017621
-11.105400 16.257900 28.823500 47 47 47 0.071508 -0.997199 -0.021908
-11.132500 16.252300 31.068199 48 48 48 0.078450 -0.996751 0.018233
-11.132100 16.336300 34.284801 98 98 98 0.091710 -0.995489 -0.024327
-11.011400 16.289801 34.834499 44 44 44 0.060729 -0.998145 0.004366
-11.111300 16.391300 37.034801 47 47 47 0.080196 -0.993002 -0.086693
-11.113800 16.348499 39.839401 90 90 90 0.064562 -0.996736 -0.048464
-11.113400 16.390699 41.170700 49 49 49 0.033533 -0.998067 0.052329
-11.032500 16.313999 42.817799 27 27 27 0.050565 -0.998719 -0.001834
-11.124000 16.402800 45.356899 73 73 73 0.042638 -0.999075 -0.005614
-11.004600 16.401100 48.141399 78 78 78 0.032674 -0.999466 -0.000675
-11.096600 16.314800 49.529900 4 4 4 0.054614 -0.998403 0.014472
-11.094400 16.398600 50.914799 65 65 65 0.029459 -0.999564 -0.001816
-11.096200 16.399099 53.688400 56 56 56 0.048319 -0.997715 -0.047220
-11.121400 16.390600 55.039501 25 25 25 0.059201 -0.996655 0.056332
-11.100100 16.402100 56.984200 8 8 8 0.037130 -0.999039 -0.023294
-11.131400 16.401899 59.243900 28 28 28 0.056994 -0.997968 -0.028476
-11.124500 16.389400 62.028801 12 12 12 0.088984 -0.994310 0.058565
-10.974300 16.386600 63.339401 9 9 9 0.091377 -0.995801 -0.005608
-10.945600 16.478901 65.344002 12 12 12 0.065199 -0.997850 -0.006608
-11.127900 15.995800 67.426300 41 41 41 -0.090072 -0.826324 -0.555947
-10.904700 15.886800 68.876198 4 4 4 -0.287923 -0.956941 0.036929
-10.891000 15.950600 70.929199 21 21 21 -0.313802 -0.949478 0.004477
-10.887700 15.901000 73.037003 57 57 57 -0.304041 -0.952561 -0.013678
-10.909100 15.887600 75.812202 64 64 64 -0.290570 -0.956645 0.020012
-10.885800 15.893600 78.571999 51 51 51 -0.297556 -0.954597 -0.014306
-10.920300 15.943800 79.250801 28 28 28 -0.308127 -0.951345 0.000348
-10.944200 15.892100 81.999603 42 42 42 -0.297578 -0.954669 -0.007440
-11.077700 15.953300 83.357002 62 62 62 -0.294932 -0.955507 0.004639
-10.894700 15.943600 86.086502 44 44 44 -0.315796 -0.948724 0.013988
-11.040000 15.983700 87.590698 57 57 57 -0.306874 -0.951731 -0.006050
-11.002900 15.971800 88.889702 42 42 42 -0.307482 -0.951452 0.013931
-10.926000 15.942400 91.087402 28 28 28 -0.323760 -0.945913 -0.020664
-10.926400 15.897700 94.547699 43 43 43 -0.330476 -0.943787 0.007218
-10.937700 15.955900 95.287300 42 42 42 -0.315252 -0.949008 -0.000543
-11.044600 15.938000 97.377602 24 24 24 -0.295249 -0.955416 -0.002749
-11.091900 16.049900 99.077797 51 51 51 -0.328608 -0.944465 0.001723
-10.982300 15.887900 102.137001 47 47 47 -0.236622 -0.970650 -0.043003
-10.601400 18.547001 -1.215040 7 7 7 -0.377571 -0.626079 -0.682251
-10.637100 18.553801 -1.128090 2 2 2 -0.391139 -0.598946 -0.698766
-10.934400 17.155300 14.837100 0 0 0 0.037638 -0.999281 -0.004564
-11.090100 17.158199 17.539600 42 42 42 0.061425 -0.044869 -0.997103
-10.749800 21.147600 -1.359730 2 2 2 0.763621 0.326791 -0.556857
-10.751200 21.150200 -1.180470 3 3 3 0.161213 -0.341640 0.925901
-10.892000 23.053301 -0.514569 1 1 1 0.397405 0.030606 0.917133
-11.067600 23.196600 -0.913898 1 1 1 0.757038 0.215717 0.616733
-7.503790 -22.857401 0.534281 59 59 59 -0.130213 0.963813 -0.232613
-8.186330 -22.882099 1.241620 58 58 58 -0.070500 0.906104 0.417140
-8.365880 -22.574699 0.739789 25 25 25 0.076167 0.951448 0.298238
-8.412690 -22.701401 1.261300 23 23 23 0.095910 0.954661 0.281823
-8.354080 -20.537701 0.319585 73 73 73 0.476115 0.000128 -0.879383
-8.954460 -20.244101 2.391660 55 55 55 0.015687 0.679161 -0.733822
-8.934570 -18.902901 6.182160 31 31 31 0.021718 -0.011239 -0.999701
-8.399030 -18.544100 0.537221 15 15 15 0.946544 0.233877 0.222163
-9.060560 -18.676901 2.146560 11 11 11 0.087593 0.283024 0.955105
-9.117880 -18.798700 6.179910 28 28 28 0.020855 -0.012923 -0.999699
-9.128610 -15.959300 -0.323088 17 17 17 -0.017199 0.155425 -0.987698
-9.018410 -15.407200 2.006620 5 5 5 0.095724 0.188343 0.977427
-9.052150 -15.648000 6.149940 51 51 51 -0.021575 -0.047866 -0.998621
-9.121440 -15.771300 9.655360 26 26 26 0.013676 -0.091136 -0.995745
-7.595700 -14.992700 12.773800 17 17 17 0.398489 0.266826 -0.877502
-9.113730 -15.580900 13.172500 95 95 95 0.021709 -0.165170 -0.986026
-9.100010 -15.296000 16.674200 105 105 105 -0.025112 -0.194143 -0.980652
-9.110630 -14.972600 20.184999 103 103 103 0.169124 -0.158336 -0.972793
-9.044670 -13.509700 -1.071330 46 46 46 0.093003 0.313643 -0.944975
-9.128930 -13.236700 2.627960 13 13 13 -0.035997 0.612883 0.789353
-9.119490 -13.847400 3.141140 65 65 65 -0.103006 0.812611 0.573631
-8.991050 -13.654100 5.560550 8 8 8 -0.273118 0.824670 -0.495303
-9.132720 -13.798000 7.517360 28 28 28 -0.348690 0.890279 0.292947
-9.000970 -13.526300 9.381740 4 4 4 -0.311728 0.637296 -0.704754
-9.066820 -13.517600 12.491300 4 4 4 -0.330696 0.851426 -0.407079
-9.115860 -13.444800 13.161000 19 19 19 -0.285229 0.676697 -0.678767
-8.946980 -14.825700 16.669300 105 105 105 -0.044866 -0.105188 -0.993440
-9.129690 -13.110600 16.818399 19 19 19 0.032241 0.966157 -0.255932
-9.041900 -14.818000 20.188101 107 107 107 0.181604 -0.134251 -0.974165
-8.850510 -12.991300 21.081499 16 16 16 0.381533 0.924089 0.022159
-9.015170 -14.695800 23.683001 49 49 49 0.083622 -0.212656 -0.973542
-8.903500 -12.966900 25.086300 13 13 13 0.656071 0.754675 0.005961
-8.919640 -12.956400 26.834700 13 13 13 0.533108 0.813643 0.231909
-8.953270 -12.939700 28.835600 11 11 11 0.673932 0.735613 0.068479
-8.993170 -12.928000 30.818800 11 11 11 0.058893 0.871079 -0.487600
-8.834860 -12.672300 -0.814356 60 60 60 0.378514 0.163402 -0.911058
-9.133700 -11.314500 1.883310 4 4 4 -0.007641 0.368783 0.929484
-8.912950 -12.799100 16.131500 14 14 14 0.651882 0.717033 0.246808
-7.981620 -12.841000 32.537399 7 7 7 -0.040259 0.998366 -0.040545
-7.465280 -9.377160 12.766200 5 5 5 -0.062730 -0.267121 -0.961619
-8.903670 -10.022100 14.743800 22 22 22 0.869882 0.110706 0.480676
-8.861740 -9.701770 14.834000 17 17 17 0.864222 0.119483 0.488717
-8.374260 -7.245150 4.861440 14 14 14 0.041074 0.002191 -0.999154
-8.219590 -8.301430 11.667500 3 3 3 0.273305 -0.283648 -0.919156
-7.370900 -8.619460 13.273900 9 9 9 0.056794 -0.827932 -0.557945
-9.101470 -6.814660 -2.137610 30 30 30 -0.041103 0.160552 0.986171
-9.059990 -4.255460 -1.312740 1 1 1 0.255285 -0.184651 0.949070
-8.899690 -4.554890 -1.164760 5 5 5 0.173425 -0.120723 0.977420
-9.015340 -2.846960 -2.252100 21 21 21 -0.016516 0.435838 0.899874
-8.900900 -0.845576 -2.216440 12 12 12 0.285476 -0.292924 -0.912523
-8.995040 1.155440 -2.217940 21 21 21 -0.014327 0.154951 0.987818
-8.961560 2.272410 -1.167310 140 140 140 0.328882 0.944236 -0.015958
-9.085710 3.202760 -2.307980 16 16 16 -0.190364 -0.000166 0.981713
-8.659620 3.424150 -0.943954 13 13 13 0.724805 -0.209655 0.656279
-9.130290 5.240610 -2.407980 16 16 16 -0.020377 0.064401 0.997716
-8.957400 7.792060 -2.608230 17 17 17 -0.053056 -0.133839 0.989582
-9.129030 9.169150 -2.430450 19 19 19 -0.020211 -0.037143 0.999106
-9.094910 10.790800 -0.259528 16 16 16 0.126341 -0.624414 -0.770808
-9.054440 11.338000 -2.271990 11 11 11 0.165248 0.205880 0.964524
-8.575190 12.015200 -0.260329 5 5 5 0.277786 0.031972 0.960111
-8.579880 13.933400 -2.273750 5 5 5 0.086136 -0.083471 0.992781
-8.835000 14.305400 -0.354127 2 2 2 -0.112041 -0.278451 0.953893
-9.098820 13.341100 1.831530 111 111 111 0.072227 0.049471 -0.996161
-8.696490 15.145900 67.512199 25 25 25 0.695497 0.426686 -0.578120
-8.502400 15.110900 68.920403 17 17 17 0.866240 -0.491852 0.087808
-8.334280 15.119300 70.993401 0 0 0 0.930825 -0.100153 -0.351475
-8.495800 15.095200 73.105698 17 17 17 -0.690341 -0.705114 -0.161999
-8.654630 15.152000 75.848297 40 40 40 0.821205 -0.569110 -0.041677
