ply
format ascii 1.0
element vertex 720
property float x
property float y
property float z
property uchar red
property uchar green
property uchar blue
property float nx
property float ny
property float nz
end_header
6.451740 -4.654970 -1.889870 21 21 21 -0.009514 0.008904 0.999915
6.581650 -3.264190 -1.372670 0 0 0 -0.541842 -0.837607 0.069441
6.672720 -2.683940 -1.883300 18 18 18 0.064223 0.180300 0.981513
7.676120 -2.444550 -1.474050 60 60 60 0.175505 0.984176 -0.024398
6.457060 -0.555598 -0.938679 0 0 0 -0.080921 0.601883 -0.794474
6.479150 1.880100 -1.900410 26 26 26 0.053018 -0.220727 0.973894
6.677200 2.738970 -1.726880 5 5 5 0.362120 -0.564938 0.741427
6.471330 3.163070 -1.968820 17 17 17 -0.144647 0.246102 0.958390
6.465620 3.987580 -1.717990 5 5 5 -0.482876 0.433570 -0.760820
6.483580 5.361190 -2.096510 19 19 19 -0.028410 0.063890 0.997553
7.814130 5.362660 3.095820 2 2 2 0.191154 -0.895900 0.401027
6.475630 7.267750 -2.243940 16 16 16 -0.032006 0.078591 0.996393
6.474010 9.343690 -2.236110 23 23 23 -0.027720 -0.126632 0.991562
7.614990 11.047700 0.249340 20 20 20 -0.020497 -0.458724 -0.888342
6.633980 11.019700 0.324313 6 6 6 0.023861 -0.377178 -0.925833
6.550390 11.427900 -2.185430 26 26 26 -0.097679 -0.146406 0.984390
6.469340 11.587600 -0.052324 26 26 26 0.036103 -0.566193 -0.823482
6.764730 11.596800 0.260454 4 4 4 0.079339 -0.101148 -0.991703
7.720570 14.333200 -1.518000 7 7 7 0.115682 -0.051621 0.991944
6.484650 14.182700 1.959080 88 88 88 0.020819 0.030061 -0.999331
7.863480 14.291400 2.259240 72 72 72 0.057688 -0.110238 -0.992230
6.677370 16.023899 -1.836180 1 1 1 0.101820 -0.825337 0.555384
6.463660 16.556601 -1.729920 5 5 5 0.195943 -0.974902 0.105698
6.587460 15.422000 1.960800 21 21 21 -0.049062 -0.146108 -0.988051
6.667750 15.940700 2.563790 4 4 4 -0.552428 -0.468424 0.689495
6.472210 16.572599 4.273110 5 5 5 0.063284 -0.997889 0.014597
6.454540 16.586300 6.973230 101 101 101 0.068180 -0.997597 0.012290
6.451130 16.637400 8.257140 55 55 55 0.065517 -0.997400 0.030001
6.476130 16.509701 11.968800 39 39 39 0.065069 -0.980318 -0.186393
6.463830 16.477800 12.271200 51 51 51 0.067064 -0.978047 -0.197300
6.473280 16.925200 67.630501 24 24 24 -0.156853 -0.054653 -0.986109
6.533760 16.955601 68.314697 24 24 24 -0.427280 -0.839067 -0.336746
6.640540 17.038500 70.429604 57 57 57 -0.254175 -0.967097 0.010901
6.647020 16.924700 73.224197 24 24 24 -0.388410 -0.921474 0.004773
6.561590 17.020201 74.577499 38 38 38 -0.363480 -0.931347 0.021812
6.535510 17.011999 77.341904 27 27 27 -0.353539 -0.935343 -0.011953
6.542380 17.028099 78.754501 30 30 30 -0.350103 -0.936699 0.004846
6.470580 17.091700 82.179001 21 21 21 -0.335260 -0.942125 -0.000636
7.106130 17.173901 -0.593699 3 3 3 0.713575 -0.635770 -0.294292
7.369690 17.135500 1.507650 4 4 4 -0.111872 -0.128032 0.985440
6.464390 17.305401 14.081900 1 1 1 0.077068 -0.733218 0.675613
6.683900 17.823799 14.520100 0 0 0 0.167089 -0.844451 0.508904
6.478450 17.336300 18.009501 100 100 100 0.075030 -0.894712 -0.440296
6.454490 17.337999 18.311899 103 103 103 0.106024 -0.960096 -0.258795
6.530280 17.334101 21.414000 1 1 1 0.059353 -0.997541 -0.037277
6.525000 17.587000 23.296900 1 1 1 0.043120 -0.992891 -0.110938
6.470910 17.573601 24.718300 14 14 14 0.074335 -0.986487 0.146005
6.597800 17.506001 26.259899 82 82 82 0.047307 -0.997860 0.045141
6.453960 17.588499 28.929800 99 99 99 0.057482 -0.994011 -0.092941
6.472220 17.568199 30.330000 32 32 32 0.046890 -0.998635 0.023033
6.456070 17.589001 32.382099 33 33 33 0.044230 -0.998701 0.025313
6.636230 17.733400 34.420502 82 82 82 0.079916 -0.996789 -0.004931
6.447990 17.837601 37.178398 27 27 27 0.066868 -0.993005 -0.097313
6.462880 17.806700 38.579800 66 66 66 0.037347 -0.997367 0.062158
6.683120 17.781099 40.495499 26 26 26 0.035397 -0.999373 -0.000992
6.551190 17.833700 42.785999 74 74 74 0.038094 -0.999146 0.015974
6.552490 17.832500 46.178299 13 13 13 0.048344 -0.995544 -0.080958
6.447810 17.823099 46.916901 5 5 5 -0.012798 -0.996857 0.078181
6.457690 17.992100 48.275799 68 68 68 0.086579 -0.995583 0.036311
6.462560 18.072100 51.026001 54 54 54 0.064999 -0.997874 -0.004764
6.438960 18.004000 52.426201 32 32 32 0.035523 -0.998026 0.051794
6.610320 18.050699 54.272800 5 5 5 0.006230 -0.999466 -0.032071
6.547210 18.085400 56.619801 43 43 43 0.018715 -0.999305 0.032248
6.444770 18.081900 59.432999 12 12 12 0.031435 -0.997560 0.062334
6.445800 18.301701 60.680401 28 28 28 0.112141 -0.992391 0.050833
6.466550 18.211100 62.713699 13 13 13 -0.015416 -0.999088 0.039822
6.458420 18.330900 65.579102 11 11 11 0.031107 -0.999459 0.010657
6.481720 17.340900 67.589104 69 69 69 -0.119130 -0.213613 -0.969627
7.627110 18.342600 68.454002 5 5 5 0.261565 -0.951170 0.163890
8.432910 18.484301 70.473701 42 42 42 0.102342 -0.994620 0.016064
6.463200 17.150499 73.178398 50 50 50 -0.234886 -0.971982 0.008930
8.368640 18.585501 74.572601 31 31 31 0.074459 -0.997126 0.013977
6.456860 17.195000 77.329697 41 41 41 -0.218931 -0.975734 -0.003531
6.448940 17.170799 79.436501 31 31 31 -0.260479 -0.965465 0.005326
6.463750 17.207800 81.473297 54 54 54 -0.243412 -0.969671 0.022130
6.471510 17.159700 82.858902 20 20 20 -0.286134 -0.958138 0.009923
7.608350 18.879700 85.021500 72 72 72 0.169616 -0.983456 0.063597
7.561390 18.964399 87.829399 78 78 78 0.136676 -0.990572 -0.009260
7.577570 19.004499 88.519203 48 48 48 0.119762 -0.992712 0.013406
7.584000 19.018101 90.656700 77 77 77 0.137429 -0.990272 0.021764
7.592200 19.035000 93.465401 65 65 65 0.162052 -0.986779 0.002426
7.393050 19.089399 96.292603 67 67 67 0.167851 -0.985615 0.019729
7.672140 19.153000 -0.921316 1 1 1 0.081614 -0.010017 0.996614
7.679380 19.193399 87.071800 28 28 28 -0.049002 -0.998763 0.008470
7.749270 19.155199 89.902298 60 60 60 0.011719 -0.999853 0.012479
7.584960 19.231800 90.610703 79 79 79 -0.041080 -0.999135 0.006440
7.666950 19.224600 92.724297 57 57 57 -0.015056 -0.999755 0.016209
7.500360 19.153900 94.825203 48 48 48 0.076968 -0.996752 0.023687
7.450510 19.165800 96.279800 88 88 88 0.076800 -0.996945 0.014249
7.476860 19.304001 98.592300 53 53 53 0.223763 -0.973594 0.045218
8.146760 19.214701 102.579002 31 31 31 0.465534 -0.884887 0.015927
6.577880 22.410900 -0.638859 1 1 1 -0.497799 -0.249370 0.830668
6.867800 23.071199 0.269578 14 14 14 -0.411132 -0.893497 0.180650
6.678810 23.180700 -0.295947 1 1 1 -0.264805 -0.901464 0.342406
6.614080 23.178900 0.266911 1 1 1 -0.165026 -0.971013 0.172915
8.438900 -22.001600 1.262160 29 29 29 -0.012441 0.998675 -0.049925
8.464260 -21.984301 2.264230 26 26 26 -0.088470 0.985197 0.146833
8.435410 -19.663300 -0.236943 22 22 22 -0.317017 0.940217 -0.124465
8.624750 -19.627899 1.171290 23 23 23 0.082419 0.995972 -0.035313
8.587850 -19.412600 2.274030 70 70 70 0.039478 0.995685 -0.083981
8.950840 -16.959600 3.252940 1 1 1 0.176085 -0.013454 -0.984283
8.906730 -17.514601 6.780440 20 20 20 0.025771 -0.085417 -0.996012
8.559820 -16.721100 0.313652 19 19 19 0.574299 0.708842 0.409542
8.598500 -15.713400 3.228030 1 1 1 0.213067 0.068027 -0.974666
8.544130 -16.748800 6.562260 18 18 18 -0.058390 -0.134617 -0.989176
8.499590 -15.447200 10.219300 10 10 10 -0.115213 -0.303031 -0.945991
8.635260 -15.693700 10.263200 17 17 17 -0.125890 -0.299888 -0.945631
8.574800 -12.911900 -0.472207 4 4 4 0.293076 0.786469 -0.543666
8.583810 -12.925900 0.267372 10 10 10 0.194536 0.897687 0.395366
8.619170 -12.874900 3.582030 47 47 47 0.141588 0.812588 0.565379
8.604490 -12.925000 4.856000 9 9 9 0.116979 0.989855 0.080638
8.541260 -13.008000 6.281470 7 7 7 -0.001999 0.801239 -0.598341
8.446930 -14.646500 9.890210 18 18 18 -0.326690 -0.252628 -0.910743
8.714980 -13.205000 12.226300 34 34 34 -0.045361 0.889590 0.454502
8.669290 -13.210600 13.719000 96 96 96 -0.137566 -0.015061 -0.990378
8.875160 -13.451900 16.255899 38 38 38 0.108911 0.993022 -0.045220
8.671510 -13.362600 17.215000 63 63 63 -0.003906 -0.073629 -0.997278
8.575780 -12.966400 19.335600 30 30 30 0.000687 0.957297 0.289105
8.647870 -13.367200 20.739599 106 106 106 0.000857 -0.098801 -0.995107
8.595880 -13.364400 24.245300 94 94 94 -0.351713 -0.284751 -0.891748
8.670280 -13.443000 24.257900 45 45 45 -0.290375 -0.283666 -0.913902
8.537990 -13.277900 27.737000 71 71 71 0.012183 -0.138833 -0.990241
8.445970 -12.922100 30.559799 41 41 41 0.345978 0.715249 -0.607222
8.560960 -12.856200 -0.068661 2 2 2 0.125435 0.675466 0.726644
9.707510 -12.861600 0.267033 61 61 61 0.004964 0.987447 0.157870
8.574480 -12.234100 3.118960 10 10 10 -0.042956 0.701240 0.711630
8.474260 -12.868800 4.522460 60 60 60 0.141917 0.985633 0.091579
8.606900 -12.790500 7.280700 36 36 36 -0.035254 0.970863 0.237029
8.448180 -12.797000 8.273950 47 47 47 0.184731 0.965798 0.181958
8.455730 -12.707400 10.910900 26 26 26 0.059692 0.959270 0.276113
8.439900 -12.861300 13.595100 16 16 16 0.108260 0.203117 -0.973151
8.453970 -12.674000 14.652900 35 35 35 0.107646 0.993213 0.044052
8.609960 -12.839800 17.182100 27 27 27 0.011613 0.081770 -0.996584
8.438180 -12.619500 18.356501 32 32 32 0.031807 0.990661 0.132587
8.435170 -12.721300 20.615000 12 12 12 0.075855 0.209405 -0.974882
8.633160 -12.706700 22.701900 2 2 2 -0.178388 0.973679 0.141871
8.438340 -12.457200 25.718500 42 42 42 0.051011 0.951228 0.304243
8.549970 -12.759600 26.478300 18 18 18 -0.112160 0.988061 0.105616
8.610810 -12.477100 29.752600 5 5 5 0.294031 0.952598 0.078117
8.455140 -12.866400 31.204100 26 26 26 0.002993 -0.097645 -0.995217
8.584590 -11.581700 32.356300 10 10 10 -0.061120 0.997569 -0.033468
8.438860 -10.725000 -0.027227 5 5 5 -0.300561 0.953442 -0.024731
8.452560 -10.363000 2.375770 5 5 5 -0.093952 0.344212 0.934179
8.457700 -8.660340 -1.557620 25 25 25 -0.030184 0.048782 0.998353
9.107630 -7.044600 12.067800 4 4 4 0.048173 -0.080838 -0.995562
8.878780 -4.959870 -1.817350 23 23 23 -0.049092 0.064415 0.996715
8.661630 -6.760770 -1.634470 27 27 27 -0.024613 0.031777 0.999192
8.588480 -4.768940 -1.824950 21 21 21 -0.031270 0.012353 0.999435
8.683050 -2.922250 -1.473340 4 4 4 -0.669287 -0.714270 0.204629
8.615020 -2.612940 -1.830640 18 18 18 0.236630 0.190981 0.952645
8.539280 -2.862130 -1.219900 102 102 102 -0.569914 -0.821219 0.028255
8.456350 2.827190 -1.901700 10 10 10 0.062349 -0.206822 0.976390
8.450910 3.233050 -1.918810 17 17 17 0.079242 -0.251730 0.964548
8.436010 3.837660 -1.576300 4 4 4 -0.462725 0.824709 0.325177
8.455470 5.273610 -2.044010 18 18 18 -0.027437 0.059881 0.997828
8.515840 7.131620 -2.170880 14 14 14 -0.030310 0.076218 0.996630
8.569590 9.472580 -2.186200 20 20 20 -0.006512 -0.117573 0.993043
8.991840 10.534500 0.425414 23 23 23 -0.223803 -0.578905 -0.784079
8.465290 11.738200 -1.994560 29 29 29 -0.199843 -0.915746 0.348529
8.477130 11.784600 -0.919002 56 56 56 0.016955 -0.999837 -0.006135
8.481540 11.728100 0.274870 15 15 15 0.195001 -0.974642 -0.109759
8.530110 14.330700 1.979700 30 30 30 -0.036472 -0.135303 0.990133
8.484070 14.335300 2.264500 88 88 88 0.058353 -0.039576 -0.997511
8.446070 16.463900 -2.191520 6 6 6 -0.224101 -0.924269 0.309041
8.797570 16.332701 -1.705660 27 27 27 0.044009 -0.969841 0.239731
8.494060 15.347400 1.925960 45 45 45 -0.353884 -0.135489 -0.925424
8.460500 15.797900 2.548080 20 20 20 -0.758973 -0.168212 0.629019
8.679930 16.454000 4.260310 58 58 58 -0.150200 -0.988579 -0.012281
8.620790 16.490999 6.262760 57 57 57 -0.142543 -0.989630 0.017744
8.615920 16.529600 8.260800 50 50 50 -0.094796 -0.995139 0.026673
8.533050 16.569901 10.366300 44 44 44 -0.149274 -0.988747 0.009855
8.461980 16.583599 12.931600 20 20 20 0.037171 -0.991069 0.128065
8.748430 17.265900 -1.480150 1 1 1 -0.966450 -0.256353 0.016029
8.481340 17.162701 1.089320 8 8 8 -0.600460 0.012140 -0.799563
8.591820 17.207899 14.025300 3 3 3 -0.235961 -0.834048 0.498685
8.587000 17.198000 14.276800 2 2 2 -0.733860 -0.636610 0.237017
8.673870 17.533199 17.802799 79 79 79 0.062430 -0.936364 -0.345435
8.476960 17.464800 18.280399 100 100 100 0.058844 -0.970487 -0.233865
8.442180 17.501699 20.258499 93 93 93 -0.030733 -0.999469 0.010832
8.489320 17.540701 22.258301 88 88 88 0.051290 -0.998573 0.014905
8.450600 17.570601 24.259600 78 78 78 0.040875 -0.998889 0.023473
8.449540 17.622900 26.266001 73 73 73 0.060086 -0.998001 0.019572
8.466700 17.656200 28.266899 62 62 62 0.060485 -0.997971 0.019866
8.511910 17.690701 30.268600 58 58 58 0.062594 -0.997799 0.021904
8.675780 17.743000 32.298500 50 50 50 0.072523 -0.997314 0.010287
9.147130 17.844200 35.194099 45 45 45 0.074203 -0.997063 -0.018967
9.101940 17.865400 36.508801 41 41 41 0.115639 -0.992464 0.040534
9.173730 17.948400 38.658199 61 61 61 0.103101 -0.993596 0.046228
8.918780 17.943600 41.545101 26 26 26 0.118237 -0.992524 0.030258
8.932350 17.969900 42.693401 17 17 17 0.117404 -0.993040 -0.009335
8.881000 18.034000 45.601799 23 23 23 0.079957 -0.996770 0.007515
8.913290 18.040600 46.315601 13 13 13 0.067902 -0.997527 -0.018135
8.896060 18.061399 48.439899 27 27 27 0.106458 -0.994299 0.006033
8.930690 18.302500 51.027901 10 10 10 -0.045830 -0.998695 0.022542
8.823470 18.080400 52.509602 5 5 5 0.205579 -0.978444 0.019605
8.917600 18.156401 54.514500 19 19 19 0.134681 -0.990883 0.003393
8.456810 18.306499 56.622898 1 1 1 0.087331 -0.996145 -0.008244
8.614360 18.282801 59.426998 26 26 26 0.078477 -0.996701 0.020709
8.566470 18.297300 60.779202 7 7 7 0.090299 -0.995074 0.040907
8.532580 18.282700 63.569302 9 9 9 0.170727 -0.984065 0.049691
8.520380 18.316099 64.975700 13 13 13 0.101222 -0.994072 0.039674
8.548480 18.494900 66.275597 36 36 36 0.087441 -0.994749 0.053176
8.487420 18.421101 68.334297 20 20 20 0.134716 -0.990883 -0.001682
8.460530 18.421301 70.481201 21 21 21 0.167290 -0.985699 0.020300
8.476220 18.576401 73.229599 47 47 47 0.059876 -0.998153 0.010302
8.467440 18.555599 74.594299 24 24 24 0.100379 -0.994917 0.008037
8.554400 18.619900 76.659401 24 24 24 0.118665 -0.992894 0.008970
8.599560 18.778200 78.731903 32 32 32 0.029760 -0.999133 0.029110
8.463440 18.726000 80.811302 21 21 21 0.074804 -0.996524 0.036651
8.501770 18.809000 82.900299 38 38 38 0.091409 -0.991038 0.097412
8.510500 19.020201 84.308800 58 58 58 0.046628 -0.998106 0.040123
8.535180 19.073299 86.406197 43 43 43 0.038781 -0.998643 0.034764
8.481760 19.080099 88.552200 49 49 49 0.086297 -0.996264 0.003317
8.507670 19.071301 90.675301 72 72 72 0.048340 -0.998805 0.007174
8.444920 19.118299 94.163696 44 44 44 0.057876 -0.998183 -0.016738
8.680970 19.129601 96.329498 54 54 54 -0.052410 -0.998617 -0.004227
8.460080 19.160700 87.100098 53 53 53 0.083587 -0.996418 0.012849
8.663830 19.162300 89.224098 40 40 40 0.074342 -0.996605 0.035384
8.480050 19.137800 90.669098 89 89 89 0.063062 -0.997980 0.007707
8.585570 19.309900 92.730301 51 51 51 0.126303 -0.991804 -0.019278
8.683960 19.266500 94.874397 44 44 44 0.065129 -0.997399 0.030885
8.597460 19.201200 97.041801 31 31 31 -0.012014 -0.999800 0.015992
8.476590 19.250900 99.356903 89 89 89 0.482558 -0.874335 -0.051726
10.195000 20.519199 100.626999 20 20 20 0.055052 -0.998187 0.024334
10.112600 20.481400 102.378998 32 32 32 0.163314 -0.985476 0.046542
10.866700 -21.561501 1.226330 46 46 46 0.200903 0.922863 0.328575
10.466400 -21.851400 2.419420 52 52 52 0.019165 0.963015 0.268765
10.573400 -19.436800 0.596150 11 11 11 0.290265 0.925956 0.241560
10.648700 -19.932899 2.331260 57 57 57 0.599972 0.797356 -0.065245
10.536300 -18.803801 3.329740 3 3 3 0.492765 0.400249 -0.772647
11.531300 -16.903200 6.820830 40 40 40 0.039092 -0.012700 -0.999155
11.440100 -16.540701 0.483066 5 5 5 -0.501477 -0.054436 0.863457
11.683900 -15.934400 3.301300 0 0 0 -0.027293 -0.095676 -0.995038
10.653200 -16.003000 6.790390 37 37 37 0.011969 -0.003396 -0.999923
10.908800 -14.963000 10.297700 39 39 39 -0.034106 -0.087535 -0.995577
10.439500 -12.929100 -0.480661 36 36 36 0.007048 0.336649 0.941604
10.668800 -12.979000 0.512884 3 3 3 -0.824839 -0.564080 0.038127
10.632500 -12.935800 2.269890 6 6 6 -0.296218 0.935853 -0.190876
10.478200 -12.881300 5.007010 0 0 0 -0.076631 0.982800 0.168024
10.672600 -14.674600 6.772220 28 28 28 0.019596 -0.020418 -0.999599
10.447800 -13.458100 10.254000 31 31 31 0.044896 -0.076045 -0.996093
10.671400 -14.521400 10.268200 16 16 16 -0.081852 -0.070103 -0.994176
10.440000 -14.437100 13.622700 37 37 37 -0.239599 -0.254688 -0.936871
10.754000 -12.928400 15.807100 45 45 45 -0.219692 0.886554 0.407133
10.455900 -14.050300 17.278799 88 88 88 0.067345 -0.050951 -0.996428
12.133700 -12.920200 20.819700 101 101 101 0.033382 0.081523 -0.996112
12.172800 -12.964600 24.326500 48 48 48 -0.096509 -0.197184 -0.975605
10.437400 -13.151700 27.777399 51 51 51 -0.020389 -0.264864 -0.964070
10.671500 -12.974800 31.293501 95 95 95 0.051761 -0.054266 -0.997184
10.552800 -12.450000 -0.503374 2 2 2 0.023370 0.198123 0.979899
12.035600 -12.864500 1.264700 15 15 15 -0.347041 0.885305 -0.309513
10.446800 -12.742900 3.626800 41 41 41 0.021706 0.874717 0.484148
10.455600 -12.754000 4.264660 68 68 68 -0.054811 0.994557 0.088609
10.506600 -12.850400 6.271830 8 8 8 0.458454 0.685347 -0.565791
10.441500 -12.675500 8.280520 62 62 62 -0.072320 0.996359 0.045156
10.476000 -12.687900 11.992800 4 4 4 -0.125317 0.922043 0.366240
10.438200 -12.707200 12.258600 4 4 4 -0.261831 0.885477 0.383895
10.534900 -12.535300 14.674500 16 16 16 -0.086028 0.993194 0.078523
10.453800 -12.666000 17.184401 14 14 14 0.070088 -0.028044 -0.997146
10.436100 -12.484500 18.402201 42 42 42 -0.093098 0.962647 0.254252
10.472200 -12.593900 20.272699 14 14 14 -0.399400 0.798726 -0.450019
10.529600 -12.567700 22.774200 5 5 5 -0.042413 0.993713 0.103612
10.456000 -12.449900 24.258301 13 13 13 0.014258 0.900767 -0.434069
10.447600 -12.505200 26.375500 5 5 5 -0.154848 0.982426 0.104220
10.933000 -11.855700 28.584299 9 9 9 0.016618 0.935109 -0.353972
10.445800 -12.412500 31.232901 12 12 12 0.044925 0.032511 -0.998461
10.441500 -11.470000 32.257198 11 11 11 -0.054785 0.996229 -0.067283
10.438600 -10.293900 -1.376250 51 51 51 0.056497 0.901640 0.428780
10.496100 -10.804500 2.723920 8 8 8 -0.047671 0.349861 0.935588
10.440300 -8.023130 -1.527990 28 28 28 -0.021552 -0.120480 0.992482
10.441000 -5.392760 -1.769210 40 40 40 0.161346 0.684943 0.710507
10.577500 -5.700770 -1.619110 31 31 31 0.255694 0.923737 0.285185
12.432900 -6.245340 1.629450 13 13 13 -0.997618 -0.031254 -0.061487
12.424700 -6.281080 2.279360 13 13 13 -0.999858 -0.010173 -0.013469
12.422700 -6.066870 5.380090 8 8 8 -0.999527 -0.028184 0.012334
12.326600 -5.660590 6.274520 1 1 1 -0.997605 0.017109 -0.067019
10.568500 -4.189790 -1.768600 16 16 16 -0.105589 -0.406819 0.907386
10.620000 -3.768540 -1.478450 3 3 3 0.018715 0.451521 -0.892064
12.117800 -3.981110 7.224350 30 30 30 -0.898011 0.135082 -0.418723
10.497500 -2.827000 -1.773220 16 16 16 -0.075035 -0.152922 0.985386
10.614200 -2.168140 -1.470510 19 19 19 -0.036941 0.888386 -0.457609
12.136100 -1.291500 0.910849 7 7 7 -0.167361 0.833887 -0.525949
12.304600 -0.795103 -0.768917 3 3 3 -0.183231 0.741468 -0.645486
12.158300 -0.602179 1.065930 1 1 1 0.016905 0.731044 -0.682120
10.729800 3.128000 -1.853980 10 10 10 -0.014882 0.094007 0.995460
10.825500 1.794290 -0.900528 2 2 2 -0.125057 0.471218 0.873106
10.466400 3.137360 -1.860520 12 12 12 -0.019438 0.024176 0.999519
10.707100 4.984920 -0.860263 3 3 3 -0.456172 0.888638 0.047232
10.478300 5.302020 -1.996570 12 12 12 0.062043 0.186646 0.980466
11.194400 5.177350 -0.765624 0 0 0 -0.431978 0.895084 0.110541
10.442800 7.522430 -2.133240 8 8 8 -0.040862 0.086319 0.995429
10.457900 9.168050 -2.272450 26 26 26 0.012492 -0.162517 0.986627
10.549000 11.838600 -2.030720 24 24 24 0.087392 -0.244391 0.965731
10.474800 11.784900 -1.723880 27 27 27 -0.111141 -0.326482 0.938647
10.597200 14.124500 -1.970460 2 2 2 -0.176353 0.095294 0.979703
10.475600 14.445900 2.079030 92 92 92 0.017574 -0.040122 -0.999040
10.466200 14.471400 2.279490 102 102 102 0.040012 -0.177393 -0.983326
10.556100 15.316000 -2.138490 1 1 1 -0.090588 -0.303142 0.948630
10.466800 16.576300 -1.723610 52 52 52 0.035989 -0.999071 -0.023689
10.476200 16.496401 0.727448 35 35 35 0.060512 -0.998155 -0.004968
10.565700 16.544701 2.731460 54 54 54 0.028738 -0.988713 0.147043
10.465300 16.570000 4.276840 52 52 52 0.064682 -0.997698 0.020368
10.464200 16.612400 6.260230 51 51 51 0.066536 -0.997569 0.020734
10.614100 16.661699 8.270940 49 49 49 0.065422 -0.997657 0.020007
10.523400 16.702600 10.356100 40 40 40 0.064025 -0.997758 0.019506
10.514400 16.732599 12.270400 46 46 46 0.064953 -0.997830 0.010762
10.985000 17.143900 13.571200 0 0 0 0.041199 -0.923235 0.382020
10.435500 18.511000 15.075500 6 6 6 0.083511 -0.994983 -0.055083
10.477700 17.586700 18.068800 93 93 93 0.111298 -0.907239 -0.405624
10.507400 17.585501 18.275600 94 94 94 0.080739 -0.926420 -0.367731
10.473100 17.728201 20.675800 30 30 30 0.027415 -0.960215 -0.277913
10.458700 17.802099 23.427000 9 9 9 0.095291 -0.978192 -0.184553
10.447000 17.629601 24.258600 3 3 3 0.117956 -0.992868 -0.017300
10.471700 17.770201 26.264999 98 98 98 0.064050 -0.994448 -0.083495
10.447100 17.827600 29.029100 96 96 96 0.069910 -0.990139 -0.121394
10.435100 17.805599 30.426600 22 22 22 0.067411 -0.997232 0.031386
10.524900 17.802999 32.531399 7 7 7 0.056709 -0.997545 -0.041085
10.614600 18.055799 34.506401 9 9 9 0.070461 -0.967156 -0.244222
10.531600 18.068100 37.277599 37 37 37 0.050847 -0.981230 -0.186018
10.452900 18.035601 38.681900 65 65 65 0.046114 -0.995891 0.077942
10.481600 18.031099 40.282902 49 49 49 0.047656 -0.993158 -0.106617
10.450600 18.079000 43.015598 47 47 47 0.062938 -0.993875 -0.090841
10.480900 18.234800 45.564400 28 28 28 0.085616 -0.993063 -0.080602
10.610200 18.089001 46.292000 13 13 13 0.059161 -0.998037 -0.020536
10.473000 18.325500 48.324600 15 15 15 0.094717 -0.994901 -0.034639
10.478300 18.332001 51.118801 46 46 46 0.048711 -0.998796 -0.005839
10.459300 18.297400 52.506802 51 51 51 0.059084 -0.997668 0.034159
10.445900 18.272200 54.401600 9 9 9 0.059544 -0.997403 0.040528
10.454300 18.337500 56.836899 27 27 27 0.062642 -0.998027 -0.004277
10.454600 18.552099 59.381599 15 15 15 0.067475 -0.984130 -0.164119
10.446500 18.536200 60.774399 31 31 31 0.088560 -0.989257 0.116306
10.469400 18.467199 62.259701 40 40 40 0.056281 -0.998315 0.014159
10.439800 18.575701 64.967499 45 45 45 0.052211 -0.998300 -0.025899
10.477300 18.477301 66.362198 11 11 11 0.049239 -0.997314 0.054220
10.505000 18.578400 68.383202 5 5 5 0.050377 -0.998730 -0.000880
10.523100 18.554399 70.581703 10 10 10 0.074777 -0.997199 0.001351
10.538900 18.745501 72.570602 16 16 16 0.097617 -0.994882 0.026104
10.454500 18.758900 74.623802 36 36 36 0.073302 -0.996812 0.031512
10.453000 18.698400 77.427597 18 18 18 0.080444 -0.995368 0.052643
10.462800 18.825100 78.816101 40 40 40 0.030538 -0.999531 -0.002477
10.440600 18.837500 81.537498 50 50 50 0.034921 -0.999362 -0.007472
10.513200 18.802099 82.264702 23 23 23 0.042464 -0.996507 -0.071911
10.602700 20.313900 91.968803 36 36 36 0.176090 -0.984350 -0.006911
10.513700 20.326700 93.486397 35 35 35 0.198507 -0.979801 0.024204
10.542000 20.380501 94.763901 26 26 26 0.102963 -0.993924 0.038898
10.593100 20.478001 96.274803 41 41 41 0.130159 -0.991450 0.009252
10.553600 20.528000 98.303101 18 18 18 0.118723 -0.992907 0.006432
10.494300 20.473400 100.660004 20 20 20 0.109427 -0.993589 0.028396
10.559200 20.534599 102.373001 45 45 45 0.070670 -0.997397 0.014282
12.445500 -21.757799 1.524250 41 41 41 -0.117967 0.979717 -0.161982
12.506800 -21.736700 2.270540 9 9 9 0.384693 0.793289 -0.471915
13.144100 -19.793800 1.515310 10 10 10 -0.882316 0.394855 0.256143
12.681200 -18.992800 2.366710 28 28 28 -0.731093 0.508428 -0.454977
13.609700 -18.032101 1.226420 3 3 3 -0.945890 0.296813 -0.131127
12.525400 -18.507500 2.507690 0 0 0 -0.383510 -0.158781 -0.909785
12.599700 -17.369101 6.869410 29 29 29 0.037099 -0.025049 -0.998998
13.533900 -15.806300 1.872150 60 60 60 -0.776402 0.627699 0.056508
12.660600 -15.129100 2.556360 4 4 4 0.068424 0.492056 0.867870
12.592200 -16.863001 6.863780 26 26 26 0.041377 -0.015470 -0.999024
12.897800 -15.263000 10.349600 50 50 50 0.016729 -0.045799 -0.998811
12.572000 -13.676700 0.063896 41 41 41 0.162553 0.175884 -0.970897
12.602100 -13.674600 0.361339 36 36 36 0.008839 0.206704 0.978364
12.554800 -13.728800 2.378060 1 1 1 -0.313507 0.344332 0.884957
12.522900 -14.816700 6.831040 22 22 22 0.017119 -0.008473 -0.999818
12.436500 -13.199500 9.967090 20 20 20 0.147235 -0.064542 -0.986993
12.515500 -14.772800 10.330500 49 49 49 0.024398 -0.016689 -0.999563
12.436400 -14.496800 13.830100 87 87 87 0.025780 -0.024006 -0.999379
12.449300 -13.938000 17.316500 94 94 94 0.023017 -0.011210 -0.999672
12.647000 -13.466100 20.837000 96 96 96 -0.070321 -0.121571 -0.990089
12.474800 -13.218600 24.318600 33 33 33 -0.143118 -0.228014 -0.963082
12.456600 -12.820800 -0.370394 65 65 65 -0.525266 0.606068 0.597308
12.437000 -12.865800 0.313970 15 15 15 -0.386568 0.915740 -0.109478
12.440800 -12.614400 3.679050 35 35 35 -0.224914 0.817138 0.530754
12.449900 -12.752000 4.956540 21 21 21 -0.158121 0.974439 0.159582
12.449400 -12.752200 6.258920 49 49 49 -0.151953 0.966147 -0.208496
12.488300 -12.763000 8.578700 0 0 0 -0.242568 0.889372 0.387528
12.478900 -12.723000 10.271200 5 5 5 0.102246 0.215477 -0.971141
12.470600 -12.684700 13.752200 8 8 8 -0.125682 -0.115272 -0.985351
12.643200 -12.416100 14.746100 30 30 30 -0.788876 0.600642 -0.130018
12.453700 -12.797300 17.303600 85 85 85 -0.054009 -0.135156 -0.989351
12.498200 -12.684900 19.363701 42 42 42 -0.796681 0.374117 0.474696
12.436300 -12.655900 20.826200 93 93 93 -0.231673 -0.106071 -0.966994
12.461300 -12.274600 22.279100 43 43 43 -0.821152 0.553299 0.139890
12.465700 -12.656100 24.330601 63 63 63 -0.267309 -0.384640 -0.883515
12.502000 -12.349200 26.897400 4 4 4 -0.912764 0.276563 -0.300625
12.668700 -12.236800 30.230700 7 7 7 -0.987789 -0.143416 -0.060865
12.510100 -12.866500 31.341499 98 98 98 -0.158070 -0.352404 -0.922402
12.563900 -11.338600 32.277100 10 10 10 -0.055745 0.997167 -0.050509
12.934200 -10.123200 -0.626433 39 39 39 -0.237671 0.903410 0.356879
12.455500 -10.610900 2.537680 3 3 3 0.127880 0.405688 0.905022
12.623500 -8.450340 -1.444340 15 15 15 0.357247 0.456489 0.814857
12.458100 -6.796150 -1.300280 10 10 10 -0.132265 -0.042691 -0.990295
12.596200 -6.327090 0.865626 5 5 5 -0.961714 -0.268384 -0.055469
12.435200 -6.306260 2.269280 18 18 18 -0.998906 -0.024283 -0.039961
12.460800 -6.066280 5.369270 9 9 9 -0.994738 -0.101175 0.016127
12.452600 -5.491920 6.401780 6 6 6 -0.986609 -0.162092 0.018142
12.472100 -4.514290 -1.719860 17 17 17 -0.099277 -0.163805 0.981485
14.066700 -2.931480 5.728860 1 1 1 -0.701080 0.362924 -0.613819
12.582600 -2.851580 -1.372040 100 100 100 -0.335933 -0.936299 -0.102440
12.882300 -1.207160 0.422235 1 1 1 -0.681221 0.648943 -0.338837
14.159200 -2.765730 5.681700 1 1 1 -0.704844 0.372882 -0.603452
12.780700 -0.520415 2.186740 0 0 0 -0.900260 -0.237857 0.364631
13.005000 2.155450 -0.782150 0 0 0 -0.142094 0.495406 0.856961
12.512600 4.967620 -1.903280 10 10 10 -0.000289 0.069448 0.997585
14.378700 3.475400 -1.322590 16 16 16 -0.132375 0.245304 0.960366
14.014900 6.546290 -1.875380 3 3 3 -0.058666 0.124996 0.990421
12.492900 7.769580 -2.099220 2 2 2 -0.021316 0.054822 0.998269
12.469800 9.344290 -2.173510 58 58 58 -0.012185 -0.006457 0.999905
14.427600 12.840500 -0.131970 66 66 66 0.219750 -0.895797 0.386338
13.427500 14.147900 -1.978310 5 5 5 -0.124947 -0.354629 0.926621
12.737600 14.186100 -1.265300 29 29 29 0.063811 -0.257812 -0.964086
12.481000 14.583800 2.169860 90 90 90 -0.196074 -0.462583 -0.864622
12.455500 14.591400 2.261450 99 99 99 -0.131567 -0.551255 -0.823898
12.682300 16.598301 -2.021870 8 8 8 -0.043292 -0.998736 -0.025540
12.656000 16.605900 -1.234860 7 7 7 -0.027391 -0.999093 0.032588
12.462800 16.521601 2.165080 75 75 75 -0.053503 -0.998559 -0.004261
12.476400 16.670099 2.820610 47 47 47 0.029575 -0.995821 0.086409
12.465400 16.698099 4.269770 51 51 51 0.064964 -0.997689 0.019911
12.465000 16.740601 6.276440 53 53 53 0.064556 -0.997691 0.021083
12.567600 16.788099 8.271170 50 50 50 0.065467 -0.997625 0.021402
12.465900 16.826599 10.369200 43 43 43 0.059362 -0.998067 0.018414
12.458700 16.858700 12.274600 43 43 43 0.064551 -0.997845 0.011747
12.633200 17.229000 13.664600 51 51 51 0.028996 -0.908437 0.417016
12.546000 18.190001 14.666000 0 0 0 -0.078031 -0.846796 0.526163
12.566300 17.781500 17.891199 81 81 81 0.027866 -0.526835 -0.849511
12.514000 17.707100 18.277300 94 94 94 0.077479 -0.894035 -0.441246
12.482100 17.802601 20.756100 89 89 89 0.079317 -0.982112 -0.170775
12.475700 17.838600 23.545401 91 91 91 0.064670 -0.996703 -0.048989
12.664400 17.820101 24.278200 38 38 38 0.048809 -0.998765 -0.009311
12.468500 17.824800 27.055799 6 6 6 0.043571 -0.998219 -0.040744
12.499000 18.058500 28.993999 5 5 5 0.059028 -0.970131 -0.235289
12.504900 18.065800 30.330099 3 3 3 0.043349 -0.989204 0.139990
12.443100 17.974400 32.262501 51 51 51 0.053057 -0.998525 0.011563
12.481600 18.076401 34.596699 88 88 88 0.046998 -0.994492 -0.093680
12.489900 18.085300 38.005501 27 27 27 0.053117 -0.998325 -0.022942
12.557200 18.084900 38.798199 4 4 4 0.060333 -0.998126 0.010208
12.451000 18.075500 40.830002 5 5 5 0.035805 -0.999351 -0.003851
12.498100 18.339001 42.818401 10 10 10 0.044029 -0.975677 -0.214744
12.479000 18.211000 44.277302 28 28 28 0.089983 -0.995121 0.040467
12.676600 18.250500 46.334999 14 14 14 0.048404 -0.998735 0.013592
12.443500 18.303600 48.479500 49 49 49 0.036379 -0.998888 0.029998
12.496600 18.329300 51.338299 16 16 16 0.083967 -0.996392 -0.012317
12.570500 18.337601 52.612000 7 7 7 0.083681 -0.996166 0.025506
12.457600 18.418200 54.474201 5 5 5 0.070653 -0.997390 0.014886
12.494500 18.521900 56.719700 52 52 52 0.045015 -0.998763 -0.021112
12.512600 18.547001 58.736000 0 0 0 0.040708 -0.999111 0.010943
12.482000 18.499599 60.874298 14 14 14 0.028906 -0.999232 0.026469
12.437900 18.583799 62.270599 51 51 51 0.062925 -0.997691 0.025555
12.525300 18.560499 65.094704 7 7 7 0.068007 -0.997673 -0.004891
12.456100 18.709101 66.369301 38 38 38 0.078314 -0.994275 0.072685
12.478300 18.690201 68.401901 12 12 12 0.105930 -0.994009 -0.026915
12.456600 18.809299 70.528503 46 46 46 0.055336 -0.998192 0.023467
12.450000 18.797100 73.322304 42 42 42 0.037508 -0.999084 0.020614
12.542700 18.781700 74.697502 17 17 17 0.050328 -0.998414 0.025229
12.586600 18.896999 76.752899 15 15 15 0.064306 -0.997806 0.015722
12.468500 18.975201 78.831703 48 48 48 0.081304 -0.996669 -0.006409
12.502300 18.973101 80.900200 17 17 17 0.066198 -0.997253 0.033221
12.643300 18.926300 82.317596 27 27 27 0.072979 -0.994467 -0.075567
12.646700 19.199400 17.886200 1 1 1 0.083431 0.138303 -0.986870
12.538400 20.564400 90.665199 57 57 57 0.072696 -0.996217 -0.047608
12.500700 20.500601 92.739998 14 14 14 0.082752 -0.994951 0.056786
12.618000 20.515800 94.827301 30 30 30 0.074067 -0.997247 0.003557
12.509200 20.568701 96.325302 34 34 34 0.054649 -0.998506 -0.000245
12.658300 20.635599 99.366798 37 37 37 0.091362 -0.995818 -0.000395
12.523300 20.588200 100.696999 25 25 25 0.042253 -0.999079 -0.007507
12.439500 20.565500 102.462997 20 20 20 0.058249 -0.996765 -0.055375
14.487100 -18.129299 1.107050 3 3 3 -0.784610 -0.005098 -0.619969
14.459100 -18.095400 3.130270 3 3 3 -0.775554 0.216401 0.593031
14.460000 -15.034500 1.481700 17 17 17 -0.987708 0.025174 0.154270
14.464500 -15.191800 3.329560 2 2 2 -0.830027 0.534170 0.160365
14.993200 -12.967500 -0.024604 15 15 15 -0.112034 0.978327 -0.174140
14.600500 -14.508500 1.506260 52 52 52 -0.989342 0.102361 0.103563
14.551300 -14.643300 2.272530 78 78 78 -0.991260 0.118516 0.057947
16.333500 -13.191600 10.702300 12 12 12 0.671739 0.652867 -0.350045
14.477300 -14.179200 13.667000 1 1 1 -0.102526 0.074648 -0.991925
14.758200 -12.938900 17.279900 17 17 17 0.057306 0.009223 -0.998314
14.811300 -12.745300 -0.085634 3 3 3 0.210836 0.977173 -0.026110
14.529100 -12.727100 0.318869 6 6 6 0.064205 0.996232 0.058301
14.682000 -12.476600 3.729650 24 24 24 -0.109326 0.766696 0.632633
14.463500 -12.511400 4.269750 65 65 65 0.097415 0.950515 0.295010
14.444900 -12.624500 6.278680 56 56 56 -0.066599 0.928012 -0.366549
14.435400 -12.426200 8.275600 66 66 66 0.049295 0.993883 0.098827
14.451800 -12.505200 10.274800 5 5 5 -0.049420 0.803090 -0.593805
14.501600 -12.454900 12.259600 4 4 4 0.095360 0.993275 0.065656
14.534100 -12.422000 15.903000 0 0 0 0.018210 0.998943 0.042215
14.568900 -12.421200 17.305799 15 15 15 -0.028994 0.299907 -0.953528
14.447500 -12.224600 18.506800 53 53 53 0.041347 0.982843 0.179749
14.501400 -12.716900 20.871401 91 91 91 -0.373674 -0.094042 -0.922780
14.484300 -12.322300 22.838301 22 22 22 0.048731 0.998810 -0.001944
14.502200 -12.307100 24.276899 2 2 2 0.026233 0.415213 -0.909346
14.484200 -12.261600 26.461700 4 4 4 0.301467 0.948614 -0.096170
14.510300 -12.193700 30.037901 2 2 2 0.309284 0.940686 -0.139475
14.437000 -12.163100 30.446699 3 3 3 0.115500 0.957108 -0.265715
14.456000 -11.219200 32.276798 10 10 10 -0.062081 0.986063 -0.154356
15.100100 -5.920950 -1.421910 35 35 35 0.129230 0.094624 0.987090
15.631100 -3.666790 -1.515350 6 6 6 0.095946 0.029142 0.994960
14.481400 -2.209500 5.581900 5 5 5 -0.693783 0.339550 -0.635115
14.653800 -0.854049 -1.660890 7 7 7 -0.216580 0.011117 -0.976201
15.391300 -0.705484 5.276660 1 1 1 -0.556970 0.637885 0.531871
15.010700 1.813980 -1.308760 2 2 2 -0.135302 0.056049 -0.989218
14.558300 3.479630 -1.424140 7 7 7 -0.318185 0.446662 0.836212
14.909000 8.043990 -2.054950 2 2 2 -0.069311 -0.056912 0.995970
14.437000 9.463810 -2.122060 42 42 42 -0.040463 -0.003116 0.999176
15.913200 12.889000 -1.923050 13 13 13 -0.867547 0.493523 0.061623
14.658700 12.464500 -0.220941 5 5 5 -0.792935 0.292877 -0.534301
15.063900 13.071400 0.273485 67 67 67 -0.366648 -0.628220 0.686228
14.872400 13.137600 -1.967950 27 27 27 -0.225854 -0.205084 0.952329
14.470400 13.477300 -0.018952 63 63 63 -0.732183 -0.494296 0.468593
14.571800 14.272100 1.216550 48 48 48 -0.127594 -0.299046 0.945670
14.808200 16.000000 -1.973360 129 129 129 -0.360364 -0.658311 -0.660882
14.672300 15.303300 -0.973379 61 61 61 0.015249 -0.729739 0.683556
14.488200 15.148600 1.482980 1 1 1 -0.063819 -0.151946 0.986326
14.610300 15.944100 2.430840 126 126 126 -0.315765 -0.948740 -0.013617
14.668600 16.086800 5.690960 81 81 81 -0.617163 -0.786076 -0.034553
14.659000 16.116699 6.277130 178 178 178 -0.601857 -0.798442 -0.016067
14.671900 16.129400 8.259760 160 160 160 -0.651431 -0.718847 0.242687
14.610200 16.939100 10.286300 31 31 31 0.078094 -0.996827 0.015391
14.465200 16.983400 12.257100 43 43 43 0.086248 -0.996268 0.003371
15.630900 17.320299 -0.007701 1 1 1 0.658169 -0.748976 0.076472
15.583900 17.355101 0.270743 1 1 1 0.708453 -0.705693 -0.009599
15.451300 17.465300 10.108200 7 7 7 0.530691 -0.847448 -0.014096
15.289300 17.324800 11.272000 50 50 50 0.396658 -0.903106 -0.164507
14.455500 17.319099 13.720400 39 39 39 0.012333 -0.947320 0.320051
14.469700 18.728399 15.211800 42 42 42 0.062584 -0.997464 -0.033900
14.438500 17.835699 18.022200 61 61 61 0.084043 -0.988313 -0.127179
14.471000 17.829901 18.279600 88 88 88 0.106428 -0.914045 -0.391401
14.500200 18.002501 20.707100 3 3 3 0.065431 -0.977135 -0.202300
14.443100 17.974800 23.523199 94 94 94 0.072228 -0.994101 -0.080907
14.488500 17.937700 24.271900 58 58 58 0.092407 -0.995701 -0.006434
14.506000 18.050699 26.323299 73 73 73 0.055371 -0.993492 -0.099540
14.459700 18.082001 29.113600 95 95 95 0.053575 -0.994063 -0.094706
14.526600 18.072599 30.503599 30 30 30 0.059518 -0.997902 0.025487
14.467000 18.088100 32.589500 28 28 28 0.045162 -0.998816 0.018063
14.441200 18.288500 34.572102 9 9 9 0.071991 -0.988097 -0.135946
14.467600 18.271999 37.373901 60 60 60 0.064894 -0.996703 -0.048705
14.571200 18.309299 38.753899 62 62 62 0.073054 -0.993073 0.092024
14.617900 18.270500 40.276199 49 49 49 0.068793 -0.997496 -0.016429
14.472600 18.321301 42.975498 69 69 69 0.069883 -0.996919 0.035634
14.486200 18.337500 44.328999 29 29 29 0.057167 -0.997371 0.044535
14.525900 18.338499 46.369400 11 11 11 0.076916 -0.996930 -0.014618
14.442600 18.517799 48.425400 43 43 43 0.094903 -0.994975 -0.031919
14.528000 18.530399 51.222301 66 66 66 0.069382 -0.997588 -0.002127
14.496100 18.583401 52.577801 46 46 46 0.078926 -0.996199 0.036856
14.448300 18.520300 54.589901 9 9 9 0.054354 -0.997944 -0.033976
14.459300 18.580200 56.810299 45 45 45 0.072869 -0.996792 0.033118
14.577300 18.586800 59.670502 6 6 6 0.064197 -0.997519 0.028898
14.482400 18.753500 60.874901 39 39 39 0.122214 -0.991201 0.050839
14.488300 18.759899 62.280701 51 51 51 0.096543 -0.995112 0.020785
14.439200 18.792999 64.346199 4 4 4 0.069515 -0.996724 0.041329
14.449200 18.804399 66.430298 40 40 40 0.029614 -0.999471 0.013462
14.493900 18.811300 68.470398 16 16 16 0.070855 -0.997279 -0.020367
14.460900 18.816299 70.651001 23 23 23 0.017288 -0.998979 0.041746
14.485400 18.945101 72.650002 10 10 10 0.105569 -0.994164 0.022215
14.441000 18.983700 74.713402 43 43 43 0.084293 -0.995709 0.038194
14.618800 19.017799 76.797096 22 22 22 0.061629 -0.998006 -0.013632
14.464800 19.011999 78.913002 33 33 33 0.005283 -0.999556 0.029328
14.513600 19.075399 80.265999 36 36 36 0.078945 -0.996726 0.017466
14.694600 19.216700 17.929399 1 1 1 0.050073 0.022037 -0.998502
16.422600 19.292900 59.518299 63 63 63 0.303569 -0.951298 0.053647
16.205200 19.229200 62.321098 90 90 90 0.251853 -0.967315 0.029536
15.811300 19.145800 65.058403 50 50 50 0.208728 -0.977758 0.020540
15.806300 19.186199 67.853996 78 78 78 0.230100 -0.973113 0.010233
16.045099 19.377600 69.898499 35 35 35 0.293180 -0.955468 0.033556
16.083401 19.423300 70.613403 80 80 80 0.286412 -0.957776 0.025178
15.411400 19.141399 72.632401 12 12 12 0.165973 -0.985928 0.019962
15.013600 19.132000 76.128304 58 58 58 0.131082 -0.991256 0.015148
15.012900 19.178801 78.184700 19 19 19 0.135349 -0.990590 0.020292
14.661000 19.169500 80.255302 35 35 35 0.148637 -0.988767 0.015731
14.558400 19.133400 81.631401 59 59 59 0.094095 -0.995377 0.019261
14.441000 19.177299 82.280701 14 14 14 0.102577 -0.994111 0.034959
14.441400 20.757500 93.530403 38 38 38 0.138319 -0.990208 0.018884
14.474700 20.858801 97.181297 10 10 10 0.162560 -0.986158 0.032647
14.542400 21.011700 98.683098 13 13 13 0.236946 -0.970804 0.037354
16.474600 -12.311200 14.274500 16 16 16 0.123145 0.947761 -0.294254
17.429701 -8.401150 0.017316 8 8 8 -0.552314 -0.833184 -0.027450
17.650200 -8.479690 0.281429 0 0 0 -0.583154 -0.805223 -0.107461
17.619801 -8.412120 2.464020 23 23 23 -0.793242 0.111547 -0.598602
16.450399 -6.714420 -1.453090 0 0 0 -0.217797 0.350193 0.911004
16.557301 -4.192670 -1.605000 6 6 6 -0.000675 0.096781 0.995305
17.422001 -2.275890 -1.573130 38 38 38 -0.031111 0.009371 0.999472
16.468500 -0.089215 -1.634780 4 4 4 0.090173 0.051721 0.994582
16.486200 1.992290 -1.458430 2 2 2 -0.017122 -0.133798 0.990861
16.773701 1.576590 4.918470 2 2 2 -0.849928 0.526828 -0.008626
16.455999 4.329150 -1.281320 255 255 255 -0.376582 0.901216 0.214467
18.319300 3.821080 3.370020 0 0 0 -0.814102 0.580455 0.017608
18.353001 3.779350 4.268300 74 74 74 -0.097936 -0.162600 -0.981820
16.561001 8.352580 -2.007880 2 2 2 -0.036814 -0.332498 0.942385
16.682199 9.605690 -2.046560 29 29 29 -0.215905 0.017789 0.976252
16.537800 10.141500 -1.356680 24 24 24 -0.021288 -0.494529 0.868900
17.048500 10.074000 0.806923 116 116 116 -0.803874 -0.019048 -0.594494
18.003500 12.627100 -1.921550 9 9 9 0.343012 -0.495662 0.797911
16.923300 12.680300 -0.169738 148 148 148 -0.441625 -0.424129 0.790622
17.574900 13.030900 0.260828 18 18 18 -0.349442 -0.714595 0.606007
16.675501 15.031000 -1.938990 73 73 73 -0.177680 -0.829470 -0.529538
16.489201 13.320600 -1.047320 7 7 7 -0.681328 0.406773 0.608546
16.576799 13.460100 1.320040 84 84 84 -0.544448 -0.698212 -0.464841
16.659000 15.128300 2.514410 148 148 148 -0.342387 -0.937277 0.065440
16.827801 15.088300 5.430630 91 91 91 -0.276858 -0.960906 -0.003096
16.916000 15.089200 7.272520 108 108 108 -0.296499 -0.953486 -0.054332
16.876400 15.130300 8.274230 137 137 137 -0.269245 -0.950254 0.156604
16.658800 17.115900 -0.872626 4 4 4 0.434234 -0.393032 0.810535
16.451900 15.131500 0.770908 51 51 51 -0.343795 -0.936167 0.073454
16.626699 15.137100 2.278110 155 155 155 -0.358543 -0.927101 -0.109225
16.647200 15.270100 4.266180 3 3 3 -0.320288 -0.947289 -0.007682
16.579000 15.283800 6.274340 2 2 2 -0.356515 -0.933987 0.023781
16.522600 15.230700 8.278570 136 136 136 -0.316905 -0.915912 0.246326
16.506800 17.078400 13.164700 2 2 2 0.145441 -0.989196 0.018411
16.627100 18.377399 -0.872708 3 3 3 0.597036 -0.619600 -0.509552
17.280899 17.482300 9.661370 1 1 1 0.338619 -0.920787 0.193619
16.491600 17.280600 12.194300 26 26 26 0.097423 -0.954615 -0.281457
16.495899 17.459101 13.703200 2 2 2 0.076428 -0.942085 0.326550
16.456499 18.833300 15.394600 70 70 70 0.167804 -0.983065 0.073657
16.461599 18.044100 18.080000 46 46 46 0.232123 -0.516469 -0.824244
16.454300 18.035900 18.262501 66 66 66 0.206540 -0.713302 -0.669733
16.452900 18.169399 20.817801 48 48 48 0.189476 -0.974178 -0.122781
16.505301 18.179800 22.286600 49 49 49 0.216780 -0.975935 0.023615
16.446100 18.158600 24.267700 53 53 53 0.230727 -0.971985 -0.044831
16.470900 18.230900 26.357000 71 71 71 0.196182 -0.979139 0.052906
16.443100 18.289600 29.229601 50 50 50 0.205407 -0.977692 0.043901
16.446199 18.337400 30.477900 24 24 24 0.211254 -0.977430 -0.001687
16.497700 18.393200 32.278801 15 15 15 0.184520 -0.982718 0.014744
16.570299 18.519300 34.740700 56 56 56 0.215298 -0.976527 0.006513
16.541100 18.579100 37.540100 33 33 33 0.237140 -0.971397 0.012335
16.745501 18.854799 40.188202 88 88 88 0.311603 -0.950069 0.016502
16.730700 18.885300 41.558201 85 85 85 0.341949 -0.939623 0.013378
16.474100 18.782400 42.951500 99 99 99 0.262414 -0.964935 0.006248
16.465099 18.864799 45.722500 98 98 98 0.260792 -0.964891 0.031199
16.460400 18.955299 48.481201 85 85 85 0.262579 -0.964034 0.041107
16.480200 19.073700 51.243599 60 60 60 0.305768 -0.951943 0.017639
18.174000 19.488501 -0.809316 1 1 1 0.046892 -0.233838 -0.971144
18.301901 19.428900 0.262859 1 1 1 0.316238 -0.632524 0.707041
17.237200 19.237301 11.279600 2 2 2 0.086558 -0.072311 -0.993619
17.238701 19.140301 15.365600 53 53 53 0.413748 -0.905714 0.092171
16.454399 19.462200 17.981001 0 0 0 0.042183 0.003694 -0.999103
19.904200 -27.577000 1.592430 0 0 0 0.127475 0.195196 -0.972445
20.335300 -21.574800 4.095880 3 3 3 -0.020721 -0.010133 -0.999734
19.146900 -14.677500 1.629910 64 64 64 -0.414957 -0.536740 -0.734657
19.362101 -11.301200 -1.020850 3 3 3 0.071326 0.461068 -0.884494
19.676201 -10.038300 -0.444506 77 77 77 -0.040734 0.444414 -0.894895
19.521799 -9.959850 0.274353 124 124 124 -0.289700 0.010496 -0.957060
19.898899 -8.093220 -1.222430 7 7 7 -0.455155 -0.409472 -0.790675
18.632299 -5.219650 -1.529210 4 4 4 -0.030977 0.010060 0.999469
20.383600 -6.245760 12.330000 30 30 30 -0.457462 0.334721 -0.823827
18.851400 -4.647840 -1.534450 6 6 6 -0.036093 0.003321 0.999343
18.925501 -2.835550 -1.505740 2 2 2 -0.023455 0.022616 0.999469
19.612101 -0.328587 -1.522270 1 1 1 -0.029273 0.005243 0.999558
18.505400 3.402270 -1.243370 6 6 6 -0.037219 -0.040264 0.998496
18.956301 4.528560 4.466570 145 145 145 -0.126656 0.022799 -0.991685
18.740400 5.208840 -1.406920 2 2 2 -0.065379 -0.180389 -0.981420
19.268999 6.277970 4.315320 255 255 255 -0.123240 0.058628 -0.990644
18.806299 10.239400 -1.881970 3 3 3 0.121184 -0.982658 0.140349
19.038500 10.458100 -1.573240 46 46 46 0.023848 -0.998731 -0.044365
19.570299 12.480100 -1.898970 2 2 2 0.270365 -0.293351 0.916978
18.816000 12.400900 0.001763 111 111 111 -0.298360 -0.860789 0.412340
19.429001 12.457300 0.275870 55 55 55 -0.113850 -0.452516 0.884459
18.534000 13.421500 -0.180800 36 36 36 -0.189502 -0.528890 -0.827263
18.548100 13.253600 1.344590 42 42 42 0.070568 -0.918814 0.388332
18.442499 14.822200 2.267400 102 102 102 -0.031350 -0.999065 0.029775
18.632799 14.974300 4.279210 1 1 1 0.021291 -0.998837 0.043270
18.508301 14.987000 6.281450 2 2 2 -0.017509 -0.999579 0.023156
18.476299 14.921300 8.261170 82 82 82 -0.022633 -0.990154 0.138143
19.265699 15.485200 -0.648899 2 2 2 -0.680698 0.458555 -0.571294
19.780500 15.131700 6.277620 0 0 0 0.151162 -0.988358 0.017307
18.750900 15.338700 9.281520 6 6 6 0.019545 -0.940944 0.337997
18.437500 17.825899 11.494700 10 10 10 0.289792 -0.929032 -0.230045
18.491400 17.477100 12.381600 12 12 12 0.262594 -0.857317 -0.442777
19.308399 20.445801 0.248674 2 2 2 0.220561 -0.383832 0.896675
18.485600 19.176500 11.314000 1 1 1 0.296680 -0.236517 -0.925225
18.740101 20.133101 17.801100 21 21 21 0.652350 -0.753806 -0.078844
20.829000 -27.887600 2.060690 8 8 8 0.097815 0.150329 -0.983785
20.814699 -27.868500 2.279750 11 11 11 0.068466 0.134942 -0.988485
21.213900 -23.313900 4.248740 3 3 3 0.046602 0.064045 -0.996858
21.230499 -23.273600 4.277460 2 2 2 0.044653 0.060746 -0.997154
20.814501 -22.083200 4.230290 3 3 3 -0.025526 0.166128 -0.985774
21.297899 -22.596001 4.369290 3 3 3 -0.171208 0.468938 -0.866479
21.693100 -20.811300 2.869380 0 0 0 -0.181524 0.763155 0.620196
22.286200 -17.318899 20.961201 40 40 40 -0.597204 -0.801491 -0.030970
20.760799 -13.747300 -0.264788 13 13 13 -0.259961 -0.107039 -0.959668
20.598000 -11.849000 -0.997527 2 2 2 0.140170 0.398096 -0.906572
21.384501 -9.266410 -0.262484 44 44 44 -0.128229 0.082323 -0.988322
21.149000 -8.981950 11.823800 7 7 7 -0.375972 0.708029 -0.597780
20.936600 -9.424540 12.482900 12 12 12 -0.392486 0.818167 -0.420186
20.547199 -7.211020 12.256100 6 6 6 -0.475220 0.453536 -0.753970
20.754101 -5.006300 -1.443150 2 2 2 -0.029472 0.014068 0.999467
20.977400 -6.370000 12.698700 35 35 35 -0.495639 0.441970 -0.747666
21.792400 -2.901610 -1.426440 2 2 2 -0.045920 -0.009837 0.998897
20.467199 -2.203250 -1.486390 4 4 4 -0.025722 0.011211 0.999606
20.984501 -0.351676 -1.495540 2 2 2 -0.025249 0.012629 0.999601
20.451900 4.294200 -1.031860 95 95 95 -0.339805 0.916505 -0.211069
21.106800 6.937650 -1.770630 0 0 0 -0.082956 0.196876 0.976913
22.246201 6.271890 -1.691560 18 18 18 -0.202025 0.254118 0.945838
21.850599 7.212820 -1.754520 1 1 1 -0.116710 0.202991 0.972200
20.531900 10.517300 -1.829710 21 21 21 0.074868 -0.993877 -0.081266
20.677700 9.373640 -0.455439 38 38 38 0.012804 -0.604213 -0.796720
22.179600 10.529500 0.268787 8 8 8 -0.996919 -0.017706 0.076409
22.161900 10.587700 2.264190 12 12 12 -0.054576 -0.998473 -0.008494
22.183901 10.631900 4.271540 1 1 1 -0.983062 -0.182679 -0.014765
22.121500 10.772900 6.271260 2 2 2 -0.977701 -0.209583 -0.013246
20.537800 12.736300 -1.539030 26 26 26 -0.742041 0.089448 -0.664359
21.484301 14.511900 -1.795090 59 59 59 -0.630160 0.534623 -0.563096
20.540199 13.134300 -1.141640 20 20 20 -0.825969 0.188712 -0.531190
20.479500 13.277200 1.428020 102 102 102 0.225035 -0.525949 -0.820205
20.459200 15.091000 2.274390 38 38 38 0.299036 -0.954212 0.007576
20.440001 15.073600 8.669350 127 127 127 0.150554 -0.983643 -0.098891
20.967400 15.143500 -1.237170 12 12 12 -0.066285 -0.989460 -0.128743
20.931801 15.275100 0.455471 1 1 1 -0.028184 -0.999084 -0.032195
20.678900 15.252600 3.310810 0 0 0 0.307447 -0.948648 0.074455
20.542601 15.189600 5.430100 1 1 1 0.186165 -0.982518 0.000578
20.441200 15.193100 7.332220 26 26 26 0.307731 -0.951436 -0.008436
20.503401 15.238800 8.265910 35 35 35 0.306162 -0.942824 -0.131713
20.662001 18.907200 -0.670991 1 1 1 -0.085790 -0.047759 0.995168
22.105000 17.269300 0.522146 5 5 5 -0.790645 0.226444 0.568862
21.184299 20.081499 -0.676388 6 6 6 -0.184830 0.051119 0.981440
21.182501 21.436399 -0.934234 3 3 3 -0.741030 0.129041 0.658956
20.778500 22.002501 0.304687 2 2 2 0.175081 -0.490158 0.853868
24.173201 -20.908899 3.749230 1 1 1 -0.368870 0.800336 0.472649
22.559000 -21.588301 4.762310 2 2 2 -0.780651 0.621367 -0.066982
23.101500 -19.678801 1.355020 0 0 0 -0.340756 0.763544 0.548530
24.114100 -20.857800 4.024620 2 2 2 -0.555430 0.773616 0.304984
24.409201 -20.582399 4.257780 8 8 8 -0.612201 0.761545 0.212741
