ply
format ascii 1.0
element vertex 706
property float x
property float y
property float z
property uchar red
property uchar green
property uchar blue
property float nx
property float ny
property float nz
end_header
22.069901 21.317101 82.652603 14 14 14 -0.310544 -0.942938 -0.120127
22.898199 22.514500 0.525098 28 28 28 -0.098111 0.055573 -0.993623
21.396601 21.451200 22.273199 3 3 3 -0.719552 -0.687721 0.096355
21.418900 21.472300 23.674900 2 2 2 -0.682673 -0.701270 -0.205374
21.389200 21.494499 26.407801 1 1 1 -0.670881 -0.711414 -0.209305
21.298599 21.564600 27.783600 1 1 1 -0.749633 -0.646723 0.140710
21.320101 21.529100 31.988600 7 7 7 -0.688631 -0.697841 -0.196990
21.276400 21.590000 34.736801 4 4 4 -0.691526 -0.703088 -0.165708
21.283600 21.596201 36.095798 1 1 1 -0.686520 -0.702614 0.187145
21.298100 21.556101 37.511600 7 7 7 -0.666604 -0.721546 -0.187112
21.233000 21.650400 40.285500 7 7 7 -0.659460 -0.707630 -0.253717
21.445999 21.430300 41.659100 6 6 6 -0.572659 -0.805493 0.152458
21.394300 21.483900 45.821301 5 5 5 -0.558158 -0.809212 -0.183400
21.448799 21.427799 48.618599 20 20 20 -0.542204 -0.835743 -0.086880
21.308001 21.556499 49.968102 12 12 12 -0.572913 -0.808163 0.136542
21.235399 21.427999 51.793400 31 31 31 -0.560326 -0.826467 -0.054652
21.343300 21.589199 54.097099 5 5 5 -0.531776 -0.825560 -0.188849
21.431101 21.513800 55.524399 12 12 12 -0.530428 -0.839962 0.114496
21.294500 21.483000 58.320499 32 32 32 -0.590381 -0.806737 0.025020
21.370899 21.613300 59.652302 7 7 7 -0.498250 -0.866535 -0.029399
21.371599 21.503599 62.471802 34 34 34 -0.503117 -0.864192 0.006675
21.316999 21.609400 63.817402 17 17 17 -0.479862 -0.876073 0.047203
21.345100 21.528299 66.620102 30 30 30 -0.464474 -0.885378 0.019243
21.343100 21.470100 69.104401 5 5 5 -0.438845 -0.896034 -0.067370
21.448299 21.465900 70.815697 44 44 44 -0.420849 -0.906528 0.033066
21.572701 21.480499 72.162300 32 32 32 -0.385659 -0.922143 0.030321
21.357500 21.481701 73.623001 31 31 31 -0.472771 -0.879812 0.049175
21.330099 21.614100 76.310997 33 33 33 -0.407048 -0.910285 -0.075453
21.341999 21.517599 77.717201 20 20 20 -0.379576 -0.924940 0.020193
21.325100 21.552999 79.741203 8 8 8 -0.349180 -0.935983 -0.044827
21.432600 21.551300 82.570900 30 30 30 -0.344473 -0.926094 -0.153912
22.841900 22.567499 87.443199 20 20 20 -0.342803 -0.917439 0.201969
21.644300 23.351500 88.654099 10 10 10 -0.542133 -0.837585 0.067405
21.500601 23.255100 89.490196 13 13 13 -0.692813 -0.707835 0.137764
21.935900 23.309000 92.175003 12 12 12 -0.607084 -0.793570 0.041182
21.371901 23.343700 95.123497 19 19 19 -0.676000 -0.736212 -0.031867
21.431999 23.408501 96.602097 45 45 45 -0.767854 -0.638299 0.054545
21.689899 23.217100 97.897202 16 16 16 -0.721248 -0.682860 -0.116208
21.596600 23.232000 100.973999 14 14 14 -0.638146 -0.746700 -0.187639
21.675900 23.257099 102.679001 19 19 19 -0.707994 -0.702681 -0.070592
21.390499 23.606899 88.631104 18 18 18 -0.582276 -0.809285 0.077545
21.455000 23.558599 90.968697 37 37 37 -0.800071 -0.599787 0.011896
21.387501 23.601299 92.235298 49 49 49 -0.723341 -0.689454 -0.037825
21.391899 23.604900 93.775299 51 51 51 -0.675133 -0.737648 -0.008372
21.373501 23.763300 95.769699 29 29 29 -0.794370 -0.607162 0.018150
21.425800 23.521799 97.868401 65 65 65 -0.724657 -0.678010 -0.123190
21.454000 23.490900 99.640602 44 44 44 -0.666392 -0.745454 -0.014824
21.639900 23.456301 102.614998 24 24 24 -0.717184 -0.696799 0.010882
21.255600 28.959999 102.485001 20 20 20 -0.984796 0.173645 -0.004991
21.955000 31.361300 34.812401 55 55 55 -0.962776 0.169328 -0.210690
21.335100 29.536301 102.573997 57 57 57 -0.985155 0.171479 -0.008075
21.954700 31.445299 34.771500 64 64 64 -0.957995 0.192721 -0.212377
21.947800 31.516701 36.046398 42 42 42 -0.998185 -0.057490 -0.017922
21.882900 31.504200 37.547798 58 58 58 -0.998631 -0.002166 -0.052256
21.706800 32.901001 40.924198 11 11 11 -0.994685 -0.102913 -0.003119
21.708300 32.721699 43.142601 43 43 43 -0.998107 -0.057961 -0.020562
21.699800 32.351898 43.669899 19 19 19 -0.999233 -0.025569 -0.029658
21.709700 31.841200 45.844898 46 46 46 -0.999098 -0.036062 -0.022409
21.692301 31.728300 48.524101 58 58 58 -0.985612 0.167477 0.022829
21.628901 32.773399 49.818401 41 41 41 -0.942694 0.327996 -0.061208
21.584000 32.260899 51.764702 32 32 32 -0.936049 0.351677 -0.011625
21.445299 33.216900 54.684299 13 13 13 -0.925187 0.379511 0.000041
21.455799 32.592602 56.884201 37 37 37 -0.938877 0.342875 -0.030778
21.460899 33.146500 58.118198 40 40 40 -0.936811 0.344240 -0.062316
21.415899 32.529202 59.615799 41 41 41 -0.940049 0.340842 -0.011607
21.450100 32.050201 62.296200 50 50 50 -0.940953 0.331418 0.069067
21.438200 32.381100 63.628502 23 23 23 -0.947389 0.319139 0.024592
21.242901 32.884899 73.306297 28 28 28 -0.955061 0.294364 -0.034751
21.233900 32.778801 75.456802 2 2 2 -0.942769 0.330214 -0.046307
21.304399 32.887402 75.940300 1 1 1 -0.938631 0.342125 -0.043846
22.317499 32.511101 102.538002 61 61 61 -0.970219 0.241626 -0.017101
23.160500 35.398399 37.512600 53 53 53 -0.891808 0.444479 -0.084356
21.701401 33.439602 42.826599 32 32 32 -0.997899 -0.059299 -0.026087
21.329201 33.482201 62.311298 52 52 52 -0.945514 0.320589 -0.056796
23.199900 35.458801 37.387001 56 56 56 -0.887628 0.453069 -0.082732
23.144400 35.570702 37.773499 48 48 48 -0.900408 0.431199 -0.057733
23.147400 35.572701 40.130100 50 50 50 -0.893225 0.447141 -0.047055
23.091801 35.585098 42.907799 56 56 56 -0.907950 0.417837 -0.032226
22.954300 36.569500 43.570999 26 26 26 -0.993529 -0.111477 -0.021768
22.959400 35.863899 46.074600 36 36 36 -0.999221 -0.035475 -0.017312
22.931999 35.719601 48.578999 44 44 44 -0.986143 0.165895 -0.000102
22.867399 35.813499 51.357601 39 39 39 -0.968414 0.248442 0.021218
22.852900 35.889599 51.524502 30 30 30 -0.976442 0.214849 -0.020036
22.708401 36.882000 54.667599 10 10 10 -0.996228 -0.086161 -0.010326
22.710600 36.362000 57.327499 17 17 17 -0.999706 -0.014318 -0.019578
22.680700 37.350899 59.453400 42 42 42 -0.967096 0.252645 -0.029926
22.684099 36.522900 59.570499 40 40 40 -0.958198 0.286093 0.002620
22.674999 36.104099 62.298199 46 46 46 -0.955128 0.292871 0.044239
22.686701 36.734100 64.925797 17 17 17 -0.959015 0.283156 0.010606
22.429701 37.244701 70.600403 35 35 35 -0.956994 0.287887 -0.035822
23.095400 37.835400 49.173698 32 32 32 -0.977246 0.211871 -0.010026
22.369200 37.562698 76.042900 44 44 44 -0.959622 0.278207 -0.041558
22.289301 37.535198 78.824501 45 45 45 -0.956016 0.288925 -0.050561
25.109100 -14.592900 10.673100 36 36 36 -0.899235 -0.108002 -0.423925
24.762699 -13.771200 1.245540 47 47 47 -0.653113 0.638997 -0.406357
23.321301 -12.663400 1.568590 32 32 32 0.405428 0.866432 -0.291417
23.338301 -13.643600 6.719600 6 6 6 -0.276646 -0.376934 -0.883961
24.940201 -14.453100 10.666700 25 25 25 -0.542842 -0.009280 -0.839784
23.768299 -13.461300 13.404000 62 62 62 -0.952635 0.088767 -0.290874
23.422800 -13.226400 14.124000 42 42 42 -0.658588 -0.152355 -0.736919
23.384300 -13.595300 17.648500 38 38 38 0.020849 -0.046090 -0.998720
23.371700 -13.202300 21.122400 12 12 12 -0.105292 -0.178368 -0.978314
23.422899 -12.695200 24.650600 17 17 17 0.022697 -0.039243 -0.998972
23.417200 -12.694400 28.151899 54 54 54 -0.173555 -0.243578 -0.954227
23.559799 -12.410800 0.120868 13 13 13 -0.269548 0.959023 0.087282
23.568100 -11.780900 2.374720 20 20 20 -0.101411 0.823675 -0.557921
23.251101 -12.438900 4.098980 39 39 39 -0.024419 0.985207 0.169621
23.237801 -12.584000 6.770790 8 8 8 -0.274163 0.715638 -0.642415
23.273500 -12.378100 7.771150 43 43 43 -0.019218 0.994169 -0.106107
23.286800 -12.310200 11.419800 37 37 37 -0.044642 0.984249 -0.171061
23.280899 -12.307100 11.495600 39 39 39 -0.045686 0.992298 -0.115143
23.319500 -12.290900 14.113600 10 10 10 -0.124757 0.328092 -0.936371
23.276600 -12.232800 15.503600 42 42 42 -0.045448 0.998851 0.015221
23.372101 -12.398100 17.573999 4 4 4 0.029012 0.136677 -0.990191
23.233900 -12.250500 21.069099 6 6 6 -0.117089 0.184121 -0.975904
23.441000 -12.099100 22.461000 28 28 28 -0.166544 0.984963 0.045939
23.272699 -12.311500 24.549801 4 4 4 0.056667 0.057938 -0.996711
23.783800 -12.166500 27.430201 2 2 2 -0.350871 0.933677 -0.071665
23.248699 -12.490000 28.123301 21 21 21 -0.115935 -0.132066 -0.984438
24.703800 -12.058200 30.851601 5 5 5 -0.878544 -0.366528 -0.306296
23.273800 -12.093500 31.509199 6 6 6 -0.045217 0.310787 -0.949403
23.282600 -9.965680 -0.753246 44 44 44 -0.037908 0.998466 -0.040359
23.260799 -9.956380 -0.498828 48 48 48 -0.037913 0.998679 -0.034691
23.834400 -5.763550 -1.311950 1 1 1 -0.422686 0.746927 -0.513261
24.146299 3.056220 2.673110 7 7 7 -0.711451 -0.220650 -0.667196
24.043400 4.126640 -0.927346 1 1 1 -0.810443 -0.294101 -0.506643
23.350401 4.007550 -0.483461 1 1 1 -0.855778 -0.281312 -0.434175
23.758400 13.266400 1.951770 20 20 20 0.206434 -0.547931 -0.810652
23.415701 15.245400 -0.802925 63 63 63 0.195074 -0.955063 0.223162
23.369200 15.257200 -0.039898 55 55 55 0.134957 -0.990044 0.040007
23.744301 13.415800 1.923420 21 21 21 0.267889 -0.371527 -0.888934
25.075600 14.459000 3.778570 1 1 1 0.225147 -0.974216 -0.014562
24.656799 14.673600 6.966680 26 26 26 -0.003271 -0.996479 0.083777
24.600700 14.681500 7.520670 27 27 27 0.025288 -0.996755 0.076414
23.461201 14.812100 11.121800 32 32 32 -0.067339 -0.995802 -0.062001
23.261600 14.604100 12.250600 27 27 27 0.067182 -0.969087 -0.237395
24.919600 15.039600 14.107400 26 26 26 0.039654 -0.958666 0.281758
23.647200 20.277901 18.818899 36 36 36 -0.157675 -0.975916 0.150752
23.444700 20.360201 19.666000 60 60 60 -0.171170 -0.963048 0.207940
23.382200 20.356501 21.523199 97 97 97 -0.165295 -0.985572 -0.036412
23.424999 20.495701 23.734200 4 4 4 -0.177510 -0.977083 -0.117465
23.428301 20.548000 26.520300 8 8 8 -0.165130 -0.974233 -0.153629
23.376801 20.553699 27.924601 20 20 20 -0.161840 -0.981840 0.098984
23.248800 20.492100 29.514400 78 78 78 -0.159863 -0.986637 0.031474
23.443300 20.608900 32.069801 26 26 26 -0.147520 -0.982524 -0.113508
23.434900 20.548201 33.523800 37 37 37 -0.158909 -0.986952 0.025961
23.345400 20.572500 35.514599 54 54 54 -0.123600 -0.992122 0.020441
23.392200 20.612200 37.729099 71 71 71 -0.158963 -0.987284 -0.000405
23.236601 20.576599 41.165699 3 3 3 -0.129112 -0.991454 0.018666
23.347200 20.778700 41.725101 15 15 15 -0.139552 -0.981675 0.129769
23.255199 20.695400 43.575001 34 34 34 -0.164165 -0.985803 0.035245
23.430099 20.797100 45.923599 42 42 42 -0.139571 -0.989401 -0.040067
23.444000 20.859900 48.676998 28 28 28 -0.157457 -0.986167 -0.051785
23.379299 20.854099 50.067101 40 40 40 -0.168552 -0.984944 0.038420
23.309299 20.843500 51.508999 59 59 59 -0.146314 -0.989238 -0.000756
23.433500 20.846800 54.312901 47 47 47 -0.144030 -0.989438 0.016341
23.252600 20.947701 55.601398 41 41 41 -0.131721 -0.991052 0.021579
23.445101 20.960400 58.374199 37 37 37 -0.142870 -0.989446 0.024161
23.383900 21.063400 59.712700 14 14 14 -0.153736 -0.987882 -0.021317
23.378201 21.056499 62.522598 36 36 36 -0.148503 -0.988753 0.017754
23.296301 21.035000 63.919300 33 33 33 -0.158346 -0.987162 0.020934
23.628099 20.959801 65.490700 21 21 21 -0.169281 -0.985494 -0.012077
23.249100 21.095800 68.100998 47 47 47 -0.157851 -0.987431 0.007977
23.552200 20.995300 69.514099 12 12 12 -0.188601 -0.981041 0.044594
23.678801 21.053499 72.251801 15 15 15 -0.125268 -0.992052 0.011879
23.380699 21.104099 75.020599 14 14 14 -0.162307 -0.985898 0.040751
23.449499 21.111601 76.550598 17 17 17 -0.124492 -0.991692 -0.032390
23.434000 21.310400 79.120300 27 27 27 -0.113495 -0.993290 -0.022205
23.279400 21.222700 79.766296 2 2 2 -0.142874 -0.988994 -0.038448
23.296700 21.343901 82.566200 38 38 38 -0.138183 -0.990069 0.025867
23.699699 21.932301 86.037003 11 11 11 -0.243583 -0.946155 0.213210
23.350401 22.610300 88.164001 32 32 32 -0.348472 -0.932724 0.092703
23.271400 22.589001 91.038597 31 31 31 -0.354470 -0.934796 0.022513
24.423300 22.147800 92.356697 15 15 15 -0.261892 -0.963960 -0.046839
24.682100 22.101200 93.998703 12 12 12 -0.296151 -0.955139 0.001817
23.359699 22.613800 96.693100 26 26 26 -0.362575 -0.931813 -0.016244
24.624201 22.101999 98.070000 4 4 4 -0.291611 -0.954345 -0.064712
23.619101 22.577700 99.737701 28 28 28 -0.364821 -0.930943 0.015861
23.939100 22.537701 102.722000 29 29 29 -0.316624 -0.947988 0.032677
23.257299 35.546799 37.290298 8 8 8 -0.882951 0.461492 -0.086154
23.371000 38.286999 49.632099 39 39 39 -0.957788 0.287010 -0.016344
24.146099 40.582298 48.798199 33 33 33 -0.948401 0.317072 0.000218
24.127199 39.746101 51.384499 32 32 32 -0.927382 0.373637 -0.018948
24.122601 39.738201 51.507599 29 29 29 -0.927278 0.373899 -0.018860
24.073099 39.996601 54.169601 25 25 25 -0.935724 0.348734 -0.052961
23.960400 41.082901 56.949799 25 25 25 -0.956440 0.286829 -0.054332
24.010000 41.285099 57.883499 29 29 29 -0.959409 0.276842 -0.053786
23.945601 40.350601 59.667198 22 22 22 -0.940824 0.338819 -0.007174
23.889400 40.370998 62.801201 20 20 20 -0.953260 0.301803 0.014478
23.865499 39.978298 65.302498 18 18 18 -0.962975 0.269567 0.003666
23.818199 40.362499 65.570801 15 15 15 -0.957695 0.287324 -0.016304
23.732500 41.153500 68.097702 14 14 14 -0.958028 0.282212 -0.050392
25.128599 44.350201 65.023499 39 39 39 -0.946690 0.321761 -0.015738
25.070000 43.983101 67.932404 19 19 19 -0.946141 0.323741 0.002964
25.613701 -18.900400 0.373487 23 23 23 -0.998992 -0.040343 -0.019691
25.576000 -18.974899 2.319400 68 68 68 -0.998928 -0.040378 -0.022653
25.584801 -18.436800 0.642503 18 18 18 -0.999119 -0.036461 -0.020765
25.566700 -18.570700 1.587030 42 42 42 -0.999176 -0.033758 -0.022520
25.459801 -14.749500 0.270353 12 12 12 -0.997186 -0.049266 -0.056511
25.423700 -14.815800 1.507510 57 57 57 -0.988406 -0.117430 -0.096251
26.958099 -14.642100 10.729700 255 255 255 -0.508080 -0.224899 0.831430
25.449600 -14.573900 0.270388 12 12 12 -0.997591 -0.045852 -0.052050
25.380100 -13.951000 2.368310 57 57 57 -0.991313 -0.113303 0.066793
25.272800 -14.521600 10.672700 25 25 25 -0.937318 -0.182428 -0.296908
25.801500 -12.902400 13.407100 5 5 5 -0.562588 -0.778820 -0.277371
25.400600 -13.065100 14.164800 36 36 36 -0.533336 -0.669105 -0.517543
25.244699 -12.866000 17.659700 39 39 39 0.007424 -0.143209 -0.989665
25.639999 -13.110400 21.182699 53 53 53 0.115229 -0.045962 -0.992275
25.311899 -12.786300 24.661800 33 33 33 0.122779 -0.214916 -0.968884
25.393200 -12.532600 0.803011 3 3 3 -0.980979 -0.155541 -0.116135
25.324200 -12.582000 3.067940 5 5 5 -0.984615 -0.174090 -0.015012
25.420799 -11.646700 3.674260 16 16 16 -0.642984 0.749116 0.159363
25.234900 -12.456400 5.751670 12 12 12 -0.966682 -0.161140 0.198894
25.275499 -11.581800 7.507120 17 17 17 -0.893896 0.445251 -0.051975
25.268200 -11.542400 9.671030 17 17 17 -0.928614 0.368794 -0.040816
25.275000 -11.508700 11.496300 17 17 17 -0.781138 0.624106 -0.017738
25.266500 -11.467300 13.569200 16 16 16 -0.897891 0.434993 -0.067619
25.824900 -11.682400 16.843901 10 10 10 -0.127249 0.982193 -0.138223
25.431700 -11.466000 17.722200 16 16 16 -0.360515 0.913037 -0.190768
25.670601 -11.537300 21.160400 16 16 16 -0.024039 0.985243 -0.169465
25.615200 -11.551200 21.698500 15 15 15 -0.006918 0.999762 -0.020693
25.326700 -11.385200 24.664801 11 11 11 -0.197576 0.968440 -0.151946
26.671301 -11.990100 26.705999 3 3 3 0.153444 0.955380 -0.252395
25.435900 -11.360800 28.166901 20 20 20 -0.075211 0.987315 -0.139828
25.327801 -11.161800 31.906300 17 17 17 -0.016370 0.979103 -0.202703
25.283800 -9.894470 -0.977445 39 39 39 -0.036539 0.998884 -0.029939
25.245701 -9.879750 -0.498691 41 41 41 -0.036250 0.998788 -0.033308
26.056499 -6.162440 -1.229330 1 1 1 -0.242857 0.150223 0.958360
25.460501 4.369860 -0.916993 1 1 1 -0.645883 -0.338539 -0.684271
25.936899 13.225900 1.950430 65 65 65 -0.061594 0.249114 -0.966513
25.428600 15.007600 -1.391920 128 128 128 -0.115028 -0.975073 0.189742
25.441099 14.971100 -0.492917 125 125 125 -0.088655 -0.981371 0.170442
25.427601 14.577600 2.762330 8 8 8 -0.076325 -0.831718 0.549928
25.427500 14.197300 4.796200 6 6 6 0.382470 -0.908345 -0.169190
25.361700 14.707300 7.203270 25 25 25 0.039562 -0.998874 0.026177
25.289101 14.708400 7.493650 26 26 26 0.036862 -0.998170 0.047936
25.238701 14.890800 9.611110 24 24 24 0.042294 -0.998691 0.028759
25.232201 14.672600 12.301000 26 26 26 0.033953 -0.980299 -0.194580
25.549101 15.071400 14.099900 13 13 13 0.021764 -0.957625 0.287194
27.203501 15.416400 0.268638 4 4 4 0.083502 -0.981907 0.169961
25.261499 20.060699 18.568800 21 21 21 -0.130321 -0.987374 0.090046
25.254400 20.105700 19.719000 57 57 57 -0.140881 -0.987502 0.070657
25.259899 20.108700 21.491699 74 74 74 -0.127543 -0.990931 0.042297
25.365200 20.243700 23.768200 5 5 5 -0.118749 -0.990719 -0.066141
25.255301 20.259800 26.617701 58 58 58 -0.120459 -0.990111 -0.071901
25.260799 20.263500 27.589500 12 12 12 -0.130059 -0.990182 0.051220
25.299101 20.240101 29.495701 66 66 66 -0.133721 -0.991019 0.000343
25.389601 20.310499 32.160099 62 62 62 -0.127660 -0.989822 -0.062897
25.421200 20.334900 33.519901 49 49 49 -0.117290 -0.990242 0.075265
25.328400 20.311501 35.490898 54 54 54 -0.120552 -0.991913 0.039703
25.391100 20.360300 37.900600 61 61 61 -0.133427 -0.990999 0.010844
25.460800 20.360901 41.113499 35 35 35 -0.136089 -0.990685 -0.004906
25.255400 20.349001 41.903301 2 2 2 -0.174957 -0.983565 -0.044604
25.455299 20.354401 43.975498 9 9 9 -0.131701 -0.990988 0.024443
25.322100 20.507000 46.095001 49 49 49 -0.123262 -0.992371 0.002299
25.254000 20.556900 48.801399 53 53 53 -0.129360 -0.990998 -0.034484
25.379700 20.444000 49.505001 7 7 7 -0.132753 -0.990748 -0.028189
25.393801 20.561300 51.667900 43 43 43 -0.144414 -0.989506 0.004669
25.420000 20.580500 54.553902 34 34 34 -0.153371 -0.988062 0.014534
25.289000 20.580799 55.724400 10 10 10 -0.136384 -0.990512 -0.016901
25.370501 20.697100 58.413300 40 40 40 -0.121311 -0.992443 0.018427
25.319401 20.758400 61.172901 33 33 33 -0.099245 -0.994856 0.020277
25.433599 20.797800 62.554901 30 30 30 -0.095731 -0.995305 0.014248
25.411501 20.675100 64.015198 10 10 10 -0.152499 -0.988132 0.018405
25.284401 20.726500 65.976303 12 12 12 -0.158612 -0.986869 0.030538
25.333700 20.927700 68.079803 22 22 22 -0.091361 -0.994619 0.048855
25.944300 20.834200 70.883202 39 39 39 -0.257055 -0.956529 -0.137751
26.706600 20.682301 72.287804 23 23 23 -0.448463 -0.893742 0.010301
25.386900 20.860701 73.778603 23 23 23 -0.132418 -0.991134 0.010916
25.354401 21.100500 76.316902 6 6 6 -0.089625 -0.993977 0.063070
25.304501 21.057100 79.154198 33 33 33 -0.116992 -0.992795 -0.025889
25.307800 21.004299 80.558197 35 35 35 -0.127036 -0.991894 0.002844
25.297899 21.049299 82.618698 42 42 42 -0.267095 -0.962268 0.051962
26.666000 21.078400 84.033096 17 17 17 -0.653379 -0.726729 0.212041
26.625999 21.372801 86.766197 12 12 12 -0.758527 -0.641776 -0.112960
26.775200 21.324200 91.227203 8 8 8 -0.601877 -0.791913 -0.103047
26.806601 21.405800 91.690903 7 7 7 -0.534041 -0.843462 0.058066
27.155001 21.347401 93.918999 33 33 33 -0.462238 -0.882209 0.089686
27.196501 20.185400 99.855103 17 17 17 -0.845046 -0.534611 -0.009419
27.189400 19.914499 102.853996 33 33 33 -0.797538 -0.589347 -0.128851
26.710699 21.441099 86.722900 24 24 24 -0.783507 -0.600085 -0.161294
25.328100 21.836800 88.319199 12 12 12 -0.297885 -0.953268 0.050449
25.408800 21.795601 89.587700 12 12 12 -0.195554 -0.979915 0.039054
25.409599 21.794701 92.407898 7 7 7 -0.266746 -0.963761 -0.003458
25.332399 22.060801 94.783699 8 8 8 -0.331592 -0.942969 0.029258
25.443600 21.987301 96.693199 31 31 31 -0.313403 -0.949486 -0.015988
26.372999 21.600700 98.042297 19 19 19 -0.602555 -0.797850 0.019060
25.626600 21.863800 99.768501 29 29 29 -0.426985 -0.904216 -0.008797
25.431601 21.862200 102.828003 14 14 14 -0.467372 -0.873870 -0.133844
25.405899 43.823299 51.284698 40 40 40 -0.934656 0.353869 -0.034556
25.396500 43.806599 51.523602 33 33 33 -0.934047 0.355658 -0.032624
25.358801 43.866199 54.187901 28 28 28 -0.931270 0.363792 -0.019778
26.174900 47.973099 108.767998 7 7 7 -0.970785 0.239719 0.010525
27.255899 -14.673100 10.707700 255 255 255 0.171330 0.324739 -0.930156
28.162800 -12.651800 14.211200 33 33 33 0.206528 0.857959 -0.470375
28.181299 -12.662200 17.708300 36 36 36 0.192150 0.560911 -0.805268
29.072599 -12.933900 20.954000 53 53 53 0.182449 0.084845 -0.979548
27.241699 -11.459800 0.300333 5 5 5 -0.015905 0.442601 0.896577
29.204300 -10.592400 3.347760 12 12 12 -0.379327 -0.529142 -0.759025
27.266899 -12.285600 4.190060 40 40 40 -0.006800 0.999539 -0.029584
28.437901 -12.388000 5.489540 3 3 3 -0.066824 0.988879 0.132865
27.304100 -12.222500 7.850100 39 39 39 -0.006187 0.994028 -0.108952
27.468901 -12.256500 10.654100 4 4 4 0.005275 0.997953 -0.063727
27.235701 -12.152900 11.499600 41 41 41 0.113670 0.990670 -0.075180
27.340200 -12.077200 15.232200 35 35 35 0.030585 0.947622 -0.317926
27.330400 -12.073100 15.511600 39 39 39 0.028572 0.996421 -0.079550
27.400600 -12.188700 17.657499 5 5 5 0.090208 0.974727 -0.204376
27.276800 -12.135900 21.144899 9 9 9 -0.101672 0.975875 -0.193210
27.234699 -11.954200 22.561899 31 31 31 0.060743 0.993431 0.096983
27.396200 -12.066900 24.672100 7 7 7 -0.085950 0.988194 0.126824
27.541599 -12.091600 26.808901 25 25 25 0.090282 0.955538 -0.280707
27.414499 -11.996200 28.174400 11 11 11 0.015364 0.212356 -0.977071
27.554199 -12.140600 31.222799 2 2 2 0.082784 0.637368 -0.766100
27.455900 -11.892800 31.644800 9 9 9 0.003980 0.434594 -0.900618
27.559200 -11.003300 33.546902 6 6 6 -0.039181 0.998951 -0.023697
27.276800 -9.813980 -0.944223 40 40 40 -0.181053 0.944177 0.275227
27.251900 -9.805200 -0.507277 41 41 41 -0.142876 0.577186 0.804017
28.610001 -10.497600 3.274410 12 12 12 -0.186355 -0.546530 -0.816441
28.710199 -8.570050 -0.020245 136 136 136 -0.302569 0.431822 -0.849695
27.429800 13.214300 -0.897898 121 121 121 -0.439145 -0.288958 0.850679
27.455500 13.141700 -0.494880 130 130 130 -0.849094 -0.221895 0.479377
27.356199 12.757300 2.198390 33 33 33 -0.270190 -0.239482 0.932548
29.229799 14.354300 -0.649164 60 60 60 -0.656590 -0.007636 0.754209
27.436100 15.410400 0.023219 2 2 2 0.142545 -0.986705 0.078068
27.364799 13.823600 1.771560 102 102 102 -0.586109 0.157478 -0.794781
27.267599 14.867700 3.523600 1 1 1 0.053800 -0.998295 0.022658
27.403500 14.895300 5.508700 2 2 2 0.022944 -0.999691 0.009557
27.322300 14.805200 8.491510 27 27 27 0.007078 -0.988144 0.153365
27.247299 14.986400 10.363700 20 20 20 0.040281 -0.999049 0.016659
27.298401 14.746700 12.345500 25 25 25 0.044916 -0.979262 -0.197556
27.302099 14.748100 13.490400 12 12 12 0.010256 -0.999885 0.011195
27.490299 15.715500 -1.267480 6 6 6 0.291005 -0.910314 -0.294355
27.251400 15.443400 0.741534 2 2 2 0.114853 -0.992700 -0.036813
28.894899 18.290100 18.470100 117 117 117 -0.390203 -0.378426 0.839366
28.881201 18.280001 20.448700 18 18 18 -0.980868 0.137900 0.137409
28.959101 18.125999 21.494801 59 59 59 -0.898328 -0.310889 -0.310409
28.708799 18.320801 24.822800 1 1 1 -0.933043 -0.082758 -0.350118
28.711901 18.575800 27.081900 111 111 111 -0.940539 -0.335741 0.051613
28.708700 18.317699 28.909800 103 103 103 -0.994788 -0.027813 0.098097
28.653099 18.331400 30.206200 87 87 87 -0.146535 -0.979311 -0.139565
28.705601 18.313200 32.629902 40 40 40 -0.060847 -0.113047 -0.991725
28.656900 18.586300 33.611401 42 42 42 -0.912435 -0.359185 -0.196083
28.461201 19.021500 35.808601 9 9 9 -0.958482 -0.259052 -0.119178
28.451599 18.603300 38.541599 22 22 22 -0.990468 -0.061990 -0.123006
28.457399 18.656401 40.665798 72 72 72 -0.933624 -0.246106 0.260343
28.394699 18.613300 43.486000 57 57 57 -0.999543 -0.016461 -0.025350
28.395000 18.562700 43.588699 56 56 56 -0.996812 0.031852 -0.073148
28.206301 19.050200 46.824402 3 3 3 -0.991870 -0.103816 -0.073596
28.210300 19.259300 47.493401 3 3 3 -0.954159 -0.285673 -0.089278
28.183399 18.826300 49.568901 10 10 10 -0.914323 0.019489 -0.404517
28.197001 18.833599 52.222599 30 30 30 -0.986047 -0.154641 0.061621
28.182100 19.028999 54.442799 55 55 55 -0.978276 -0.203395 0.040090
28.203600 19.042801 55.721500 34 34 34 -0.959273 -0.278606 0.046628
28.091600 19.068001 57.614300 29 29 29 -0.945970 -0.299044 -0.125354
27.942699 19.068100 60.574902 10 10 10 -0.995822 0.078923 -0.045929
27.932301 19.162901 63.346500 13 13 13 -0.936721 -0.340615 -0.080839
27.905500 19.299200 64.082001 6 6 6 -0.668784 -0.742574 0.036226
27.910200 19.042299 66.033501 12 12 12 -0.729347 -0.682362 -0.049333
27.936199 19.162600 68.212601 42 42 42 -0.493932 -0.868557 -0.040506
27.939899 19.267599 69.550903 23 23 23 -0.458633 -0.888547 -0.011856
27.828199 19.137800 71.515099 7 7 7 -0.775326 -0.617095 0.134402
27.711201 19.261101 74.352097 13 13 13 -0.708201 -0.698094 -0.105428
27.694000 19.247999 76.592201 19 19 19 -0.829116 -0.557172 -0.046114
27.605400 19.340599 77.936302 4 4 4 -0.992600 -0.120923 -0.011087
27.612101 19.344200 79.879997 14 14 14 -0.788013 -0.593054 -0.165296
27.546101 19.348499 82.854301 9 9 9 -0.785172 -0.618897 0.021699
28.094601 19.413401 92.414497 55 55 55 -0.815900 -0.578037 -0.013465
27.251801 19.804800 19.065300 81 81 81 -0.202571 -0.974460 0.096916
27.263201 19.862801 21.203501 82 82 82 -0.142537 -0.989678 -0.014828
27.256201 19.857500 21.493000 91 91 91 -0.140945 -0.989993 0.006915
27.246099 19.953100 23.893101 63 63 63 -0.164652 -0.985638 -0.037504
27.355600 19.926100 26.762199 78 78 78 -0.150504 -0.988609 -0.001035
27.683300 19.899099 27.527800 74 74 74 -0.170156 -0.984918 0.031355
27.397800 19.954599 29.761600 68 68 68 -0.147194 -0.988947 0.017803
27.333200 20.010599 32.283600 73 73 73 -0.146122 -0.989263 -0.002578
27.414400 20.068100 34.996101 73 73 73 -0.148746 -0.988774 -0.014185
27.257401 20.059999 35.524101 54 54 54 -0.148500 -0.988090 0.040310
27.315300 20.100901 37.814999 62 62 62 -0.135511 -0.990714 -0.011111
27.426500 20.127600 40.441502 46 46 46 -0.173662 -0.984621 -0.019042
27.448299 20.141600 43.151901 32 32 32 -0.176438 -0.984273 -0.008764
27.387501 20.150101 43.510300 38 38 38 -0.166048 -0.985974 -0.016818
27.300600 20.242300 45.973701 56 56 56 -0.165378 -0.986219 -0.004647
27.347401 20.222601 47.520500 28 28 28 -0.207826 -0.977624 0.032561
27.443600 20.239799 49.490299 27 27 27 -0.290481 -0.956038 0.040138
27.365700 20.286800 51.555801 26 26 26 -0.199671 -0.979255 -0.034516
27.684099 20.253000 53.535198 18 18 18 -0.474668 -0.878708 0.050618
27.861500 20.274700 55.683701 17 17 17 -0.756175 -0.580182 0.302636
28.073400 19.471800 57.653301 31 31 31 -0.762374 -0.642217 -0.079637
27.955500 19.806499 60.569401 15 15 15 -0.723820 -0.688593 0.043869
27.358101 20.435200 62.769600 17 17 17 -0.605125 -0.795350 -0.035234
27.960800 19.493401 64.041199 21 21 21 -0.586074 -0.810256 -0.001555
27.927401 19.521200 65.544296 28 28 28 -0.529468 -0.847289 -0.042008
27.853600 19.626101 68.733299 14 14 14 -0.476837 -0.878103 -0.039500
27.814100 19.438400 71.284500 8 8 8 -0.653772 -0.755766 0.037422
27.703800 19.620501 72.442596 5 5 5 -0.679685 -0.730932 0.061369
27.314301 20.610100 73.800102 8 8 8 -0.564283 -0.808097 -0.169007
27.664499 19.589899 77.061996 13 13 13 -0.714534 -0.698770 -0.034086
27.700199 19.511900 78.485100 3 3 3 -0.939455 -0.342588 -0.007618
27.615700 19.553600 79.621101 5 5 5 -0.749977 -0.657295 -0.074143
27.682100 19.496599 82.667397 36 36 36 -0.725852 -0.687835 0.004589
27.634001 19.513100 84.019501 24 24 24 -0.806201 -0.586342 0.079017
27.442200 20.268801 85.654503 11 11 11 -0.895503 -0.444928 0.010691
27.406300 19.818800 88.740997 8 8 8 -0.879163 -0.476520 0.000812
27.417000 19.825199 91.164200 28 28 28 -0.869651 -0.483234 -0.100954
27.363400 19.732599 91.703102 22 22 22 -0.911820 -0.410582 0.002622
27.392700 19.647400 93.964500 32 32 32 -0.889643 -0.454340 0.045932
27.333599 19.813700 96.798401 31 31 31 -0.914217 -0.405107 0.009810
27.343201 20.030300 98.006897 24 24 24 -0.893278 -0.448318 -0.032652
27.284300 20.250200 101.010002 22 22 22 -0.787087 -0.612246 0.075160
27.294100 20.096701 102.786003 27 27 27 -0.758709 -0.648422 -0.062535
27.327600 21.485201 90.977501 8 8 8 -0.338704 -0.934005 0.113643
27.431801 21.455099 93.782303 8 8 8 -0.274195 -0.960719 0.042853
27.304701 21.463699 96.675598 25 25 25 -0.532065 -0.808799 -0.250500
29.698000 -13.291900 3.091200 18 18 18 -0.675184 0.515120 -0.527995
29.541201 -12.603300 6.752520 0 0 0 -0.256673 0.966221 -0.023159
30.649000 -12.943700 13.367700 61 61 61 -0.982137 -0.157997 -0.102197
29.417700 -13.350300 14.027500 5 5 5 -0.382001 0.277524 -0.881508
29.415199 -13.216200 17.737700 36 36 36 -0.139853 0.126017 -0.982121
29.705700 -12.595700 24.767401 29 29 29 -0.383881 -0.206369 -0.900027
30.001499 -11.567900 0.094432 3 3 3 -0.844604 0.137469 0.517442
29.233101 -10.726200 3.385300 14 14 14 -0.362475 -0.549206 -0.752984
29.309000 -12.199800 4.508840 40 40 40 -0.034053 0.998878 0.032909
29.417900 -12.289900 5.522540 4 4 4 -0.065393 0.988339 0.137516
29.265900 -12.139900 7.920910 42 42 42 -0.031584 0.989169 -0.143342
29.425600 -12.122900 10.714300 5 5 5 -0.378273 0.922400 -0.078023
29.297899 -12.070700 11.607000 32 32 32 -0.223120 0.974779 0.004760
29.518999 -11.989000 15.304300 34 34 34 -0.386741 0.921916 -0.022429
29.510900 -11.985800 15.497500 35 35 35 -0.382734 0.920723 0.076056
29.408800 -11.945700 17.725401 11 11 11 -0.389560 0.900813 -0.191779
29.237000 -12.050900 20.753401 2 2 2 -0.343679 0.840441 -0.418980
29.413099 -11.866000 22.717100 37 37 37 -0.457373 0.859891 0.226709
29.349600 -12.488100 24.753599 25 25 25 -0.162208 -0.083038 -0.983257
30.169399 -11.646000 26.192200 19 19 19 -0.983862 0.178201 0.016151
29.249001 -12.447600 28.247499 27 27 27 -0.057642 -0.063798 -0.996297
30.097000 -11.405000 29.505100 17 17 17 -0.854361 0.512215 0.087768
29.279699 -12.377200 31.755899 44 44 44 -0.215138 -0.098276 -0.971626
31.035500 -10.875700 33.519100 10 10 10 -0.042497 0.998973 -0.015733
29.347000 -9.733650 -0.883635 38 38 38 -0.125855 0.621363 -0.773349
29.322001 -9.725510 -0.494498 34 34 34 0.030315 0.515242 -0.856508
30.125401 -6.885980 -0.309205 11 11 11 -0.356491 0.180260 -0.916745
30.210899 12.993500 2.219740 26 26 26 -0.982933 -0.167930 -0.075111
29.914600 14.597600 -1.061180 45 45 45 -0.795822 -0.584444 0.158407
29.235600 14.357100 -0.485535 58 58 58 -0.809388 0.547460 0.212552
29.500401 13.488100 2.054370 58 58 58 -0.946411 0.296813 -0.127313
29.284100 13.790000 4.840120 2 2 2 -0.095303 0.034457 -0.994852
29.282801 14.836300 6.073540 26 26 26 -0.105758 -0.993274 -0.047132
29.249800 14.865500 7.520470 25 25 25 -0.050433 -0.998719 0.004212
29.348200 15.055200 9.517100 19 19 19 -0.176643 -0.983103 0.048024
29.342699 14.818000 12.381700 21 21 21 -0.039551 -0.991177 -0.126506
29.695000 15.474500 -0.902228 162 162 162 -0.607721 -0.696019 -0.382404
29.344400 15.478500 0.150587 4 4 4 -0.522495 -0.852475 -0.016882
29.246300 18.104300 18.519199 53 53 53 0.292069 0.350999 -0.889661
29.261200 18.212700 21.174801 34 34 34 -0.638148 -0.759911 -0.123704
29.455799 18.180000 22.654301 14 14 14 -0.498573 -0.866405 -0.027715
29.282200 18.274900 23.912201 15 15 15 -0.400748 -0.900801 0.167207
29.394100 18.241100 26.873600 52 52 52 -0.301662 -0.952604 0.039313
29.301399 18.233299 27.491501 21 21 21 -0.360812 -0.931070 -0.054063
29.337099 18.305201 29.572599 61 61 61 -0.192341 -0.981306 0.006550
29.297300 18.329700 33.003399 17 17 17 -0.231073 -0.955206 -0.184897
29.453100 18.425900 35.061298 73 73 73 -0.254646 -0.964901 0.064203
29.235701 18.392000 35.526798 32 32 32 -0.384917 -0.883615 -0.266576
29.403299 18.547199 37.766201 22 22 22 -0.318183 -0.947329 0.036437
29.440500 18.517500 40.581799 76 76 76 -0.273063 -0.941896 0.195626
29.318001 18.592899 43.321701 63 63 63 -0.326162 -0.918895 0.221925
29.383801 18.531000 43.509201 26 26 26 -0.374014 -0.927324 -0.013525
29.258900 18.605801 46.129501 66 66 66 -0.484908 -0.852612 0.194721
29.299400 18.629700 49.081001 21 21 21 -0.497808 -0.837887 -0.223905
30.158899 18.648399 49.525101 9 9 9 -0.160537 -0.985836 -0.048533
30.125999 18.834499 54.374199 48 48 48 -0.182358 -0.982882 -0.026256
29.964399 18.837601 55.770199 53 53 53 -0.281461 -0.959215 -0.026182
29.649900 18.999300 65.453697 60 60 60 -0.225939 -0.973120 0.044607
29.672100 18.961000 65.494499 57 57 57 -0.214550 -0.974203 0.069975
29.709700 19.036100 68.230003 58 58 58 -0.245674 -0.968115 0.048972
29.902100 19.052700 71.051102 44 44 44 -0.214867 -0.976417 0.021032
29.905899 19.105801 73.820503 41 41 41 -0.250065 -0.965997 -0.065705
29.503201 19.214399 76.489998 49 49 49 -0.333878 -0.942449 0.017749
30.480200 19.309000 79.269402 44 44 44 -0.216692 -0.972450 0.085935
30.028200 19.285801 82.710602 42 42 42 -0.246228 -0.969211 0.001566
30.643499 19.463100 86.794197 36 36 36 -0.220972 -0.975179 0.014053
32.402802 -13.067600 17.791901 25 25 25 0.424048 -0.040565 -0.904731
31.615299 -11.646700 5.439080 9 9 9 -0.114852 0.985100 -0.128009
32.285099 -11.893500 5.511080 11 11 11 0.086370 0.990567 -0.106386
32.708500 -12.003200 8.160050 34 34 34 0.109087 0.964873 -0.238998
32.639599 -11.933800 11.616200 37 37 37 0.132693 0.950288 -0.281684
31.411600 -11.486000 13.664500 10 10 10 -0.250402 0.967911 -0.021122
32.572701 -11.865700 15.492200 40 40 40 0.056723 0.996406 0.062909
31.265499 -11.391400 18.312799 18 18 18 -0.129885 0.991476 0.010211
31.939800 -11.411900 21.290600 12 12 12 0.094631 0.995319 -0.019639
32.477402 -11.742900 22.760799 33 33 33 0.172845 0.984892 -0.010598
31.667601 -11.361400 24.780300 14 14 14 0.020242 0.960916 -0.276100
32.242001 -11.660100 26.364100 15 15 15 0.158504 0.987177 0.018940
31.410700 -11.183600 28.272499 15 15 15 -0.004636 0.999378 -0.034956
31.312901 -10.886100 32.180599 11 11 11 0.039084 0.992158 -0.118721
32.352100 -9.611680 -0.793719 32 32 32 -0.006186 0.928510 -0.371256
31.753000 -9.433860 -0.363702 8 8 8 -0.028882 -0.109542 0.993562
33.091999 -8.534410 0.786489 2 2 2 -0.087143 0.780479 -0.619079
32.881599 -8.350310 6.536110 2 2 2 -0.818573 0.303195 -0.487864
32.583900 -8.188980 9.482800 2 2 2 -0.652236 0.277681 -0.705323
32.574902 -8.186730 9.525760 2 2 2 -0.673964 0.299780 -0.675207
32.017899 -5.228390 -1.140370 0 0 0 -0.131170 0.132199 0.982506
32.763599 12.604700 -1.537710 1 1 1 -0.395491 0.297390 0.868992
31.728201 14.267200 -0.717556 7 7 7 -0.353529 -0.934726 0.036116
31.456301 14.620800 1.008750 14 14 14 -0.024199 -0.917236 -0.397608
32.250099 15.089100 2.854180 12 12 12 0.252372 -0.930925 0.263983
31.269699 18.181499 18.564301 53 53 53 0.050666 -0.998665 0.010018
31.317600 18.261900 19.812000 75 75 75 -0.002401 -0.998313 0.058008
31.243999 18.217899 21.511299 53 53 53 0.043882 -0.998743 0.024208
31.249100 18.323200 23.921700 131 131 131 0.025952 -0.999062 -0.034674
31.322201 18.364100 26.758801 51 51 51 0.023249 -0.997918 -0.060163
31.529200 18.326500 27.498199 30 30 30 0.036714 -0.999204 -0.015585
31.406300 18.359200 29.756399 44 44 44 0.037666 -0.998601 0.037110
31.247700 18.422701 32.371300 62 62 62 0.045120 -0.998853 0.016011
31.633101 18.541800 33.600498 8 8 8 -0.031002 -0.994643 0.098609
31.242599 18.470900 35.529400 29 29 29 0.039987 -0.999071 0.016054
31.233500 18.516600 38.012600 31 31 31 0.045840 -0.998421 0.032482
31.702600 18.577801 40.757198 32 32 32 0.041895 -0.999016 0.014550
31.666401 18.662300 43.381802 67 67 67 0.018097 -0.999715 0.015552
31.584999 18.614100 43.602001 23 23 23 0.044099 -0.998916 0.014892
31.712099 18.687500 46.193298 34 34 34 0.039578 -0.998881 0.025872
31.712799 18.740101 49.169998 32 32 32 0.045516 -0.998742 0.021030
32.104801 18.754801 49.494900 14 14 14 0.044276 -0.998727 0.024151
31.444099 18.792400 51.689400 67 67 67 0.038106 -0.999057 0.020824
31.318501 18.823400 54.475899 53 53 53 0.026728 -0.999518 0.015794
31.275600 18.849300 57.312599 30 30 30 -0.001660 -0.999983 0.005665
31.488501 18.869801 57.535801 8 8 8 0.002715 -0.999918 0.012528
32.252499 18.941799 60.900299 7 7 7 -0.039306 -0.999137 0.013466
31.697100 18.937201 62.302898 6 6 6 -0.115690 -0.993040 0.022083
32.076302 19.000601 63.583500 9 9 9 -0.085255 -0.996127 0.021505
31.904499 19.059299 65.682198 22 22 22 -0.020473 -0.999425 -0.027017
31.466900 19.065901 68.339600 15 15 15 -0.067896 -0.997506 -0.019259
32.178799 19.109900 72.469200 12 12 12 -0.089279 -0.995125 0.041893
32.256001 19.100901 74.013199 15 15 15 -0.111488 -0.990053 -0.085820
31.864901 19.299200 82.897598 8 8 8 -0.162376 -0.986648 -0.012640
31.899401 19.319700 83.547501 5 5 5 -0.168321 -0.985688 -0.009295
33.080799 19.080601 85.574799 19 19 19 -0.154195 -0.988026 -0.005292
32.853100 19.058599 88.536201 15 15 15 -0.182307 -0.983105 0.016385
33.137199 19.110201 91.200996 23 23 23 -0.185249 -0.982659 0.008074
32.654301 19.155300 101.314003 4 4 4 -0.271475 -0.962435 -0.004437
32.888802 19.348700 102.816002 18 18 18 -0.268691 -0.962478 0.037961
34.873901 -12.201500 1.453230 8 8 8 -0.377868 0.898969 0.221519
34.887600 -12.206300 1.501480 7 7 7 -0.376950 0.899555 0.220702
33.320801 -12.038200 4.302690 42 42 42 -0.022060 0.998880 -0.041861
33.291901 -11.981500 7.996570 37 37 37 -0.039611 0.999070 -0.017033
33.335300 -11.904700 11.665000 42 42 42 -0.038497 0.999162 -0.013922
33.265900 -11.881200 14.306400 8 8 8 0.066080 0.997342 -0.030690
33.258598 -11.973600 16.184601 12 12 12 -0.097507 0.993887 0.051771
33.358501 -11.774800 19.067900 34 34 34 -0.022835 0.990886 -0.132753
33.831200 -11.515100 21.331499 12 12 12 -0.076661 0.995296 -0.059229
33.322300 -11.715900 22.732800 28 28 28 0.036373 0.999326 -0.004853
33.308300 -11.665300 24.821600 12 12 12 -0.093004 0.995374 -0.024118
33.242901 -11.553300 28.323200 14 14 14 -0.128738 0.988299 -0.081805
33.348202 -11.544900 31.825001 14 14 14 0.015191 0.569451 -0.821885
33.294399 -9.574810 -0.757037 35 35 35 -0.003916 0.934053 -0.357114
33.274101 -9.569140 -0.495458 34 34 34 -0.025650 0.892244 -0.450824
35.199799 -8.466020 -0.900362 1 1 1 -0.344721 0.540096 0.767765
33.941200 -3.717330 -0.129257 83 83 83 -0.093439 -0.056649 -0.994012
33.828999 11.334400 -1.098140 101 101 101 -0.996285 -0.086107 0.001641
33.942101 11.229400 -0.481279 92 92 92 -0.980448 -0.190981 -0.047416
33.438000 12.815800 -1.512250 2 2 2 -0.739908 0.225231 0.633882
33.711700 12.533500 0.193755 5 5 5 -0.996895 -0.072885 -0.029804
33.370998 15.005900 -0.707561 56 56 56 -0.869551 -0.133384 -0.475489
33.308498 18.263300 18.585800 47 47 47 0.067772 -0.997658 -0.009295
33.310299 18.263700 19.542299 47 47 47 0.044497 -0.998832 0.018851
33.311699 18.316700 21.514299 49 49 49 0.049783 -0.998710 0.010021
33.247002 18.333500 23.527901 49 49 49 0.043485 -0.998686 0.027129
33.307899 18.365801 25.532900 42 42 42 0.043892 -0.998813 0.021117
33.375401 18.401699 27.503300 41 41 41 0.038007 -0.999236 0.009070
33.345501 18.438900 29.492901 37 37 37 0.038565 -0.999138 0.015331
33.298698 18.467699 31.570801 34 34 34 0.044868 -0.998762 0.021485
33.282001 18.512400 33.538200 30 30 30 0.043321 -0.998875 0.019277
33.258801 18.552401 35.521702 28 28 28 0.038296 -0.999168 0.013999
33.245602 18.597300 37.816700 17 17 17 0.038482 -0.999036 0.021145
33.363701 18.661501 40.816399 41 41 41 0.046015 -0.998869 0.011965
33.277302 18.721001 43.471199 19 19 19 0.053015 -0.998582 -0.004833
33.342300 18.702200 43.555500 43 43 43 0.038044 -0.999242 0.008192
33.268799 18.770599 46.320099 25 25 25 0.041890 -0.998608 0.032039
33.433498 18.805201 49.373600 15 15 15 0.036196 -0.999060 0.023870
33.427399 18.801701 49.499100 14 14 14 0.037589 -0.998931 0.026898
33.619400 18.964300 53.010101 20 20 20 0.069529 -0.997285 0.024250
35.183899 19.093000 57.232399 40 40 40 0.024225 -0.999186 0.032255
34.545502 19.026899 58.666199 31 31 31 0.039783 -0.999003 0.020271
33.802799 19.063700 59.994900 64 64 64 0.037982 -0.998874 0.028440
34.258900 19.092899 63.370800 6 6 6 0.036769 -0.999145 0.018893
33.258301 19.027100 68.222702 55 55 55 -0.164581 -0.976567 -0.138675
33.432301 18.792101 69.605003 16 16 16 -0.195638 -0.967574 -0.159769
33.368599 18.754601 72.455299 25 25 25 -0.174844 -0.984368 -0.021189
33.898800 18.661100 73.839798 35 35 35 -0.159656 -0.987145 -0.007403
35.100800 18.190100 76.788498 19 19 19 -0.207555 -0.978018 0.020049
33.398899 18.932699 82.782700 37 37 37 -0.158116 -0.987414 0.003634
33.649601 18.686001 84.279297 10 10 10 -0.200231 -0.979594 0.017438
33.244099 18.843100 85.751404 10 10 10 -0.178998 -0.983747 0.014182
33.234100 19.112600 88.356102 13 13 13 -0.181612 -0.983231 0.016570
34.291500 18.533300 89.849899 5 5 5 -0.336630 -0.941273 0.026164
33.402100 18.983299 93.301697 11 11 11 -0.169773 -0.985351 0.016155
33.663502 18.852699 94.100998 33 33 33 -0.154471 -0.987938 0.010854
34.001701 18.985500 96.791397 8 8 8 -0.275037 -0.961412 0.006383
34.872398 18.561899 97.753197 5 5 5 -0.314199 -0.949347 0.004374
33.398499 18.977400 99.987099 25 25 25 -0.214217 -0.976784 0.002157
33.959999 18.792000 103.010002 22 22 22 -0.282173 -0.959339 -0.006897
36.564301 -12.901000 10.457600 24 24 24 -0.917209 -0.381517 -0.114773
36.157001 -11.891500 0.849639 4 4 4 -0.037345 0.995246 -0.089947
35.954498 -10.733600 3.090900 5 5 5 -0.967535 -0.251442 -0.025567
35.438099 -11.954000 4.350300 37 37 37 -0.369938 0.926339 -0.071010
35.382900 -12.132100 6.023960 4 4 4 -0.523655 0.834188 0.172965
35.280800 -11.902300 8.032490 37 37 37 -0.326338 0.945092 -0.017444
35.961300 -11.430100 10.023700 31 31 31 -0.924753 0.380170 -0.017376
35.339500 -11.823900 11.771400 38 38 38 -0.449830 0.893086 0.007047
35.324402 -12.315700 13.512900 5 5 5 -0.769360 0.627905 0.117562
35.277599 -11.756200 15.492700 31 31 31 -0.433500 0.901124 -0.007227
35.250000 -11.700300 19.091499 30 30 30 -0.482109 0.875914 0.018589
35.379002 -11.645200 21.357800 9 9 9 -0.580184 0.810678 -0.078662
35.710499 -11.406200 22.592501 22 22 22 -0.856676 0.509328 0.081801
35.293499 -11.619200 24.858400 12 12 12 -0.544886 0.836689 -0.055237
35.645302 -11.387700 26.302601 19 19 19 -0.950902 0.286176 0.117853
35.273399 -11.468000 28.358400 12 12 12 -0.451696 0.823804 -0.342517
35.580299 -11.174200 29.496300 19 19 19 -0.278042 0.960254 -0.024607
35.240002 -11.312000 31.863899 13 13 13 -0.419148 0.698762 -0.579695
35.335400 -9.490700 -0.677631 39 39 39 -0.347582 0.652755 0.673126
35.325001 -9.487940 -0.493541 34 34 34 -0.300830 0.489509 0.818463
35.304901 -8.444490 -0.911907 0 0 0 -0.350538 0.566760 0.745591
35.501598 13.709300 -1.486190 1 1 1 -0.481793 0.243877 -0.841665
36.010101 17.511000 12.708100 18 18 18 0.048185 -0.998444 -0.028072
36.761902 17.534100 13.520100 25 25 25 0.038953 -0.998276 -0.043899
35.432598 18.341600 18.631399 46 46 46 -0.031335 -0.999182 -0.025564
35.405800 18.383499 21.435400 48 48 48 0.033859 -0.999427 0.000317
35.397800 18.379299 21.495199 48 48 48 0.034435 -0.999396 0.004593
35.273800 18.479500 24.063499 47 47 47 0.044397 -0.998810 -0.020204
35.256901 18.468700 27.014601 42 42 42 0.042631 -0.999052 -0.008844
35.492699 18.481199 27.490101 35 35 35 0.041986 -0.999039 -0.012597
35.357800 18.519800 29.810499 38 38 38 0.040480 -0.997838 -0.051783
35.231400 18.565800 32.777199 31 31 31 0.034577 -0.999319 0.012887
35.349800 18.626301 35.399399 30 30 30 0.039381 -0.998354 0.041702
35.351101 18.626900 35.492699 28 28 28 0.038994 -0.998614 0.035358
35.233398 18.677700 38.152699 29 29 29 0.037023 -0.997848 0.054125
35.312099 18.717699 41.020699 22 22 22 0.040499 -0.999109 -0.011852
36.380001 18.875000 43.425400 40 40 40 -0.003073 -0.999495 -0.031635
35.280300 18.755100 43.647099 23 23 23 0.044489 -0.997930 0.046437
35.288898 18.814199 46.384399 21 21 21 0.042909 -0.999072 -0.003823
35.396900 18.870300 49.084900 33 33 33 0.043175 -0.998852 0.020772
35.336498 18.837799 49.506302 1 1 1 0.050556 -0.997795 0.042994
36.304699 19.001801 51.763302 67 67 67 -0.000931 -0.999908 0.013502
35.608799 18.979601 55.059200 7 7 7 0.041128 -0.998922 0.021516
36.211498 19.066601 57.329899 53 53 53 0.027117 -0.999420 0.020615
36.319000 19.063900 57.648701 15 15 15 0.030946 -0.999320 0.020059
35.350899 19.068199 60.182999 24 24 24 0.039274 -0.999117 0.014947
36.646099 19.174200 62.373402 8 8 8 0.032192 -0.999339 0.016891
36.659698 19.180500 63.602699 4 4 4 0.035318 -0.999245 0.016176
35.312801 19.216900 65.509102 13 13 13 -0.013183 -0.994560 -0.103328
35.268002 18.281900 68.289902 54 54 54 -0.070512 -0.135819 -0.988221
35.892101 17.922501 69.739197 31 31 31 -0.203107 -0.897737 -0.390918
35.381199 18.110001 76.727501 34 34 34 -0.232384 -0.972547 0.012202
35.386299 18.279499 79.370102 17 17 17 -0.213560 -0.976723 0.020132
35.552700 18.194500 82.870598 44 44 44 -0.265147 -0.964038 0.018125
35.667702 18.417000 93.988098 6 6 6 -0.247873 -0.968676 0.015033
36.919201 19.831301 3.434950 64 64 64 -0.890240 -0.452244 -0.054285
36.841900 20.209000 3.623600 95 95 95 -0.885269 -0.437221 -0.158548
37.687099 -12.765400 3.277720 7 7 7 -0.211488 0.349456 0.912772
37.349998 -12.756400 9.698580 38 38 38 -0.114927 -0.297416 -0.947806
39.053200 -12.033400 1.449230 49 49 49 0.023293 0.999722 -0.003640
37.762199 -11.636100 2.544930 10 10 10 -0.038878 0.973314 0.226159
38.584599 -11.836000 4.423610 40 40 40 -0.041968 0.998878 -0.021947
37.646301 -11.549100 6.633880 9 9 9 0.026906 0.944753 -0.326678
38.699200 -11.766300 8.153140 38 38 38 -0.027414 0.999608 -0.005743
38.956600 -11.845200 9.491790 7 7 7 -0.142168 0.989594 0.022183
38.461800 -11.695900 12.349700 35 35 35 0.095699 0.992128 0.080769
38.434200 -11.637600 15.430400 36 36 36 0.075645 0.997057 -0.012492
38.425098 -11.634800 15.542600 36 36 36 0.076397 0.997057 -0.006349
37.409199 -11.329400 19.291700 14 14 14 0.056450 0.984423 0.166509
38.708801 -11.671100 19.874001 5 5 5 -0.149839 0.987220 0.054273
37.960400 -11.447600 23.281401 11 11 11 0.122840 0.987246 -0.101273
38.576698 -11.580900 24.455099 4 4 4 -0.069677 0.980083 0.185966
37.706699 -11.063600 28.400900 12 12 12 -0.002597 0.875290 -0.483591
37.451500 -11.041900 31.904800 11 11 11 0.023465 0.869959 -0.492565
38.555500 -10.581100 33.035198 11 11 11 -0.033096 0.996732 -0.073688
37.914700 -4.924710 -0.970064 23 23 23 -0.439349 0.011144 0.898247
38.633202 -5.167680 -0.462249 98 98 98 -0.562423 0.459158 0.687644
38.537701 12.695800 -0.587009 21 21 21 -0.055472 -0.158574 0.985788
37.881302 12.268600 0.972690 42 42 42 0.118628 -0.935905 -0.331677
37.918900 17.338100 0.283555 19 19 19 0.108110 -0.994133 0.003516
37.835800 17.357401 1.522090 20 20 20 0.051454 -0.998622 0.010321
37.801399 17.397200 3.504160 22 22 22 0.004857 -0.996791 0.079903
38.923401 17.502300 0.031491 21 21 21 -0.018895 -0.995834 -0.089200
37.772301 17.440901 1.552660 64 64 64 -0.032821 -0.998863 0.034572
37.704899 17.582701 4.716060 63 63 63 -0.187868 -0.982187 0.003814
37.692902 17.517900 5.520180 63 63 63 -0.085367 -0.996292 0.010703
37.653099 17.557400 7.534240 63 63 63 -0.078809 -0.996842 0.009790
37.459202 17.753099 10.067700 7 7 7 -0.222382 -0.974959 -0.000750
37.280102 17.552299 12.930800 21 21 21 0.044696 -0.998659 -0.026132
37.292099 17.557800 13.505900 25 25 25 0.042503 -0.998277 -0.040451
37.394501 18.707800 17.310200 88 88 88 0.072351 -0.985914 -0.150797
37.399399 18.416300 18.695900 41 41 41 0.009810 -0.968456 -0.248993
37.275501 18.413000 19.516300 44 44 44 0.046911 -0.998668 -0.021505
37.247799 18.455601 21.506599 42 42 42 0.033870 -0.999325 0.014211
37.319401 18.489901 23.506701 39 39 39 0.026949 -0.999436 0.020056
37.258099 18.516001 25.506901 40 40 40 0.036051 -0.999159 0.019511
37.239300 18.563601 28.002300 31 31 31 0.038698 -0.999087 0.018076
37.300900 18.593399 29.515100 32 32 32 0.020895 -0.999685 0.013885
37.361698 18.622299 31.575899 28 28 28 0.038850 -0.998991 0.022546
37.436600 18.658501 33.492699 26 26 26 0.037128 -0.999063 0.022257
37.433899 18.715799 35.519901 27 27 27 0.035575 -0.999239 0.015996
37.241501 18.736000 37.552898 23 23 23 0.044899 -0.998720 0.023272
37.346100 18.787399 39.504501 21 21 21 0.035345 -0.999124 0.022390
37.263901 18.801800 41.552299 25 25 25 0.031581 -0.999493 -0.004043
37.364300 18.851200 43.587898 23 23 23 0.031532 -0.999246 0.022657
37.297001 18.873699 45.524601 14 14 14 0.034988 -0.999109 0.023606
37.274799 18.920401 47.496399 15 15 15 0.035478 -0.999165 0.020283
