ply
format ascii 1.0
element vertex 710
property float x
property float y
property float z
property uchar red
property uchar green
property uchar blue
property float nx
property float ny
property float nz
end_header
-21.306400 12.297400 8.359540 60 60 60 0.137011 -0.990406 -0.017988
-20.492001 12.316400 -2.790010 7 7 7 0.307969 -0.915621 0.258445
-21.363800 13.099500 -1.990940 9 9 9 0.792579 0.599696 -0.110376
-21.101801 12.646500 -0.285423 21 21 21 0.592776 0.780986 0.196665
-21.796900 12.546100 4.440410 48 48 48 0.085444 -0.996339 -0.002944
-21.145100 12.347100 5.661370 96 96 96 0.142834 -0.989595 0.017352
-21.333000 12.312700 8.473630 21 21 21 0.181203 -0.979799 -0.084612
-21.307600 12.331900 11.112000 57 57 57 0.056957 -0.996193 0.065994
-21.369600 12.332200 11.406000 57 57 57 -0.034656 -0.988373 0.148048
-21.362101 12.361800 13.623000 54 54 54 0.780591 -0.625025 0.004621
-21.467199 12.385800 15.661900 49 49 49 0.202734 -0.979080 0.017338
-21.579399 12.412500 18.505800 30 30 30 0.744452 -0.667119 -0.027279
-21.587500 12.416500 19.651699 46 46 46 0.288750 -0.953597 -0.085301
-21.473499 12.492500 21.660801 72 72 72 0.070703 -0.995005 0.070474
-21.556101 12.501900 25.348101 64 64 64 0.222884 -0.967225 0.121653
-21.558800 12.503400 25.413300 63 63 63 0.964549 -0.263882 0.003240
-21.604401 12.528300 27.671900 63 63 63 0.218849 -0.975598 -0.017714
-21.648100 12.552400 29.691700 59 59 59 0.147717 -0.988361 0.036373
-21.740000 12.532000 32.444500 26 26 26 0.063792 -0.970536 -0.232360
-21.592899 17.486300 -1.540900 40 40 40 0.174408 -0.968557 -0.177424
-21.774099 16.919901 -0.043538 7 7 7 0.045785 -0.870130 -0.490691
-21.580999 18.346300 -0.486188 30 30 30 0.381470 -0.533485 0.754901
-21.781099 18.992001 3.386130 16 16 16 0.061260 -0.997894 0.021348
-21.786900 18.996799 3.645960 16 16 16 0.061096 -0.997970 0.017964
-20.332800 24.125500 -0.963106 73 73 73 0.467944 0.201872 -0.860393
-21.088200 25.933201 -0.998241 56 56 56 0.678079 0.524280 -0.515110
-20.018101 25.586300 0.802152 8 8 8 -0.617544 -0.677108 0.400204
-21.572201 26.390900 -0.524001 17 17 17 0.709267 0.461562 -0.532824
-20.025900 26.755800 1.958090 2 2 2 -0.685504 -0.569441 0.453675
-20.745300 34.951000 -0.753835 64 64 64 0.017719 -0.020287 -0.999637
-20.444000 34.839500 -0.089164 65 65 65 -0.012800 -0.082112 0.996541
-19.537300 -31.977900 1.191590 11 11 11 0.782433 0.531577 -0.324383
-19.777901 -31.133101 -0.003772 18 18 18 -0.022770 0.997754 0.063001
-19.669300 -31.118000 1.637360 38 38 38 0.641708 0.447108 -0.623142
-19.785601 -31.225700 4.675620 16 16 16 0.993978 0.105277 0.030401
-19.703600 -28.719500 0.053342 25 25 25 0.986428 0.154435 0.055764
-19.729000 -29.641899 1.646500 41 41 41 0.997010 0.024759 -0.073205
-18.443501 -27.926100 3.694600 16 16 16 -0.058966 0.774912 0.629313
-19.170300 -28.413000 5.720180 6 6 6 0.615618 0.030531 -0.787453
-19.341999 -27.310301 -0.407203 6 6 6 0.816618 0.144296 0.558851
-19.799900 -27.436501 2.240620 37 37 37 0.509861 0.785292 -0.351225
-19.279499 -27.371401 3.408850 33 33 33 0.012045 0.986583 0.162817
-19.791300 -22.414801 0.897213 7 7 7 0.884870 -0.456062 0.094938
-19.793100 -22.350000 3.337590 8 8 8 0.894072 -0.417982 0.161013
-19.773199 -22.327600 3.410150 9 9 9 0.890409 -0.420469 0.174292
-18.871700 -21.219801 -0.849877 13 13 13 0.204710 0.938444 0.278239
-18.864300 -21.211800 -0.350752 13 13 13 0.365781 0.893388 0.260885
-18.892700 -21.198299 2.106330 19 19 19 0.038852 0.995984 0.080662
-18.919100 -21.314699 3.503850 7 7 7 -0.294052 0.954465 0.050306
-19.636999 -15.895300 2.963500 35 35 35 0.771511 -0.607417 -0.189247
-19.250601 -16.573601 5.398480 27 27 27 0.010453 0.940806 -0.338785
-19.626101 -16.514400 5.442680 38 38 38 -0.030191 0.950287 -0.309908
-19.188400 -16.065599 13.302000 7 7 7 -0.067473 0.997721 0.000232
-19.350599 -16.076700 13.544700 6 6 6 -0.067941 0.997667 0.006664
-19.776100 -16.058399 16.610100 7 7 7 -0.062859 0.997919 -0.014343
-19.791700 -16.031601 20.039101 6 6 6 -0.060390 0.997092 -0.046482
-19.443501 -15.997400 23.394899 7 7 7 -0.063013 0.993940 -0.090071
-19.722401 -15.978200 23.502800 4 4 4 -0.061504 0.997781 -0.025514
-19.787399 -15.992000 26.825100 6 6 6 -0.056959 0.983565 -0.171332
-19.766500 -15.896400 30.393900 4 4 4 -0.056188 0.994817 -0.084746
-19.676600 -15.907600 33.740601 6 6 6 -0.066811 0.997759 0.003753
-19.770500 -15.863700 37.213902 8 8 8 -0.064449 0.997909 -0.004804
-19.578800 -15.793200 40.601002 2 2 2 -0.029329 0.999533 -0.008613
-19.724100 -15.790900 44.081501 3 3 3 -0.048002 0.998799 -0.009840
-19.654400 -15.777600 47.530201 4 4 4 -0.036828 0.999321 -0.001474
-19.645399 -15.693200 51.006001 14 14 14 -0.033627 0.999342 0.013558
-19.615101 -15.749300 52.589199 20 20 20 -0.046250 0.998365 0.033581
-19.577499 -15.966900 54.460602 55 55 55 -0.083036 0.996546 0.000276
-19.576000 -15.760400 55.985901 6 6 6 0.002252 0.999960 -0.008612
-19.703600 -15.945300 57.909401 49 49 49 -0.066062 0.997422 0.028015
-19.784000 -15.731500 61.345798 37 37 37 0.029215 0.999550 0.006779
-19.011400 -15.748300 61.403999 52 52 52 0.080331 0.991610 0.101273
-17.823999 -13.986100 -1.137960 30 30 30 -0.017583 0.498582 0.866664
-19.267300 -15.515800 1.851430 32 32 32 0.644274 -0.720530 -0.256412
-18.457701 -15.612100 13.120600 5 5 5 0.028745 0.879425 0.475168
-17.831600 -15.689400 40.715000 13 13 13 0.149080 0.986881 0.061976
-19.242300 -15.687400 44.164799 5 5 5 -0.015679 0.999747 -0.016100
-19.445400 -15.690400 47.624500 12 12 12 0.021261 0.999765 0.004149
-19.714300 -15.669800 51.009102 13 13 13 -0.035661 0.999348 0.005726
-19.594700 -15.692900 52.622101 26 26 26 -0.029531 0.998707 0.041384
-19.573099 -15.676900 54.480801 40 40 40 0.035815 0.999325 -0.008215
-19.551500 -15.660600 56.086498 25 25 25 0.040676 0.999068 -0.014436
-19.734800 -15.648700 57.946899 40 40 40 0.033444 0.999270 -0.018442
-19.761299 -15.671700 61.365398 44 44 44 0.051235 0.998641 -0.009513
-18.271900 -15.647700 61.406399 49 49 49 0.125074 0.991485 0.036256
-19.318300 -8.459460 -2.319390 4 4 4 -0.015836 0.319646 0.947405
-18.645100 -6.990950 -2.580330 3 3 3 -0.185638 0.335807 0.923457
-19.804501 2.265140 -2.589410 3 3 3 0.063950 -0.088694 0.994004
-19.791300 2.313770 -2.601170 4 4 4 0.062040 -0.088032 0.994184
-19.115601 2.527850 -2.588000 2 2 2 0.060001 -0.211267 0.975585
-19.677099 11.524700 1.310910 66 66 66 -0.024035 -0.527411 -0.849270
-19.642200 10.785900 1.663660 67 67 67 -0.105853 -0.538681 -0.835833
-18.014601 12.566000 -2.645010 66 66 66 0.318624 -0.918314 0.234901
-18.056499 12.730100 -1.150020 82 82 82 0.692750 -0.720273 0.036121
-18.060101 12.596900 -0.591829 87 87 87 0.920263 -0.390008 -0.031773
-18.558300 12.329000 2.441240 61 61 61 0.768864 -0.638068 -0.041446
-19.784300 12.401300 3.965450 97 97 97 -0.060286 -0.979786 0.190749
-19.786200 12.436600 5.644410 104 104 104 -0.152648 -0.986960 0.051081
-19.777201 12.745400 8.150440 67 67 67 0.017996 -0.999362 -0.030847
-19.322300 12.348100 9.853940 72 72 72 0.002642 -0.994362 -0.106002
-19.761801 12.803600 11.800400 66 66 66 0.016728 -0.999783 -0.012431
-18.823500 12.430500 13.649600 54 54 54 0.500211 -0.865894 -0.004025
-19.794399 12.787000 15.536500 58 58 58 0.146301 -0.987547 -0.057851
-19.799700 12.894500 19.107201 73 73 73 0.035817 -0.999291 0.011568
-19.756201 12.830100 19.402901 49 49 49 -0.077479 -0.996993 0.001694
-19.802900 12.929500 22.759501 83 83 83 -0.125798 -0.991561 0.031317
-19.780800 12.879000 23.664600 42 42 42 -0.123563 -0.992324 0.005055
-19.793400 12.990900 26.397699 68 68 68 -0.114391 -0.993317 -0.015386
-19.786100 12.915200 27.673901 39 39 39 -0.142135 -0.989847 0.000074
-19.773800 12.941000 29.414700 37 37 37 -0.158382 -0.987377 0.001297
-19.062599 12.611000 31.409599 32 32 32 0.422798 -0.906043 0.018141
-18.659800 15.583700 -1.345940 114 114 114 0.348955 -0.529482 0.773226
-18.875000 16.796900 -0.794319 36 36 36 -0.140825 -0.847588 0.511627
-19.607401 17.055000 0.005509 11 11 11 -0.103121 -0.966483 0.235108
-18.341499 20.789700 -1.046870 25 25 25 0.490151 0.197780 -0.848902
-18.585899 21.117901 1.546280 12 12 12 0.563953 0.316689 0.762670
-18.623301 22.725599 0.627583 9 9 9 0.808060 0.554372 0.199277
-19.701599 24.924000 0.824418 9 9 9 0.734002 0.527811 -0.427384
-18.869200 26.366800 0.837275 10 10 10 0.264594 -0.539103 0.799598
-19.705299 27.461399 1.902560 2 2 2 -0.224930 -0.931295 0.286523
-19.335100 33.724899 -1.057080 23 23 23 -0.035338 -0.076173 -0.996468
-16.602900 -42.178799 1.735090 20 20 20 -0.486886 0.320322 0.812610
-16.441999 -33.249699 0.247938 17 17 17 -0.181069 0.980632 0.074662
-16.585100 -33.225700 1.662200 27 27 27 -0.055297 0.998467 -0.002462
-17.751101 -27.314501 2.254920 45 45 45 -0.082170 0.995928 -0.037094
-17.751200 -27.315300 3.617040 25 25 25 -0.080392 0.996251 0.031954
-17.575600 -22.342501 -0.403061 43 43 43 0.419862 -0.022625 -0.907306
-17.556601 -20.506800 -0.888578 22 22 22 0.023086 0.446900 0.894286
-16.936701 -21.198999 0.758702 5 5 5 -0.360466 0.661015 -0.658121
-17.653000 -21.099001 1.552840 6 6 6 -0.024594 0.999057 0.035788
-15.943200 -21.628500 4.974190 25 25 25 0.527563 0.829346 0.184019
-17.066799 -21.035299 5.688310 16 16 16 -0.347568 0.933190 -0.091400
-16.934401 -18.946800 -0.840443 5 5 5 0.374312 -0.053515 -0.925757
-17.479799 -19.499901 0.342907 40 40 40 0.993688 -0.020746 0.110243
-17.020300 -18.941200 1.672680 7 7 7 -0.064108 0.010437 -0.997888
-16.020399 -17.758699 3.685530 6 6 6 0.957451 -0.091206 0.273804
-16.569700 -15.816200 -0.875049 13 13 13 0.439720 0.030088 -0.897631
-16.172400 -16.312599 -0.148856 64 64 64 0.113420 0.921912 0.370425
-16.219200 -16.289600 1.660140 52 52 52 0.530805 0.831925 0.161703
-16.247499 -16.274000 3.406940 54 54 54 0.748376 0.624444 0.223615
-17.625000 -16.005100 13.064900 2 2 2 -0.060863 0.994305 -0.087483
-17.793900 -15.955600 13.619000 4 4 4 -0.050923 0.998697 0.003219
-17.783100 -15.948100 16.547300 7 7 7 -0.067234 0.997406 -0.025711
-15.821600 -15.858000 17.402201 15 15 15 0.395958 0.886674 -0.238801
-17.558001 -15.949800 19.938999 1 1 1 -0.048519 0.983551 -0.173995
-17.641701 -15.867500 22.864401 8 8 8 -0.049073 0.998674 -0.015568
-17.794800 -15.846500 23.659100 4 4 4 -0.056017 0.997485 -0.043415
-17.677401 -15.861600 26.861799 4 4 4 -0.029992 0.999535 -0.005495
-16.059999 -15.742100 27.621901 9 9 9 0.366109 0.881474 -0.298273
-17.802200 -15.819200 30.299601 6 6 6 -0.064259 0.996523 -0.053032
-16.138399 -15.701200 32.636101 7 7 7 0.462256 0.879278 0.114846
-17.770599 -15.753500 33.798302 10 10 10 0.012949 0.999461 -0.030161
-17.400801 -15.701800 37.258202 13 13 13 0.169844 0.969658 0.175833
-15.832700 -15.996700 37.404900 14 14 14 0.579929 0.813580 -0.042064
-17.792700 -15.696100 40.701900 12 12 12 0.161792 0.982619 0.091013
-16.318600 -15.806600 44.144798 8 8 8 0.028512 0.062487 -0.997638
-16.356001 -15.845200 47.577202 2 2 2 -0.135443 -0.390426 -0.910617
-16.366301 -15.857400 51.022400 6 6 6 0.468864 0.883192 -0.011789
-16.561899 -15.729300 52.375500 1 1 1 0.515303 0.854559 0.064743
-17.637199 -15.844900 54.506802 58 58 58 0.130450 0.987533 -0.088100
-16.625799 -15.749600 56.085899 16 16 16 0.297049 0.950326 -0.092967
-17.615101 -15.748300 57.965302 51 51 51 0.143352 0.988285 -0.052378
-16.902399 -15.935100 61.368000 13 13 13 0.376793 0.919674 0.110576
-17.743099 -15.706700 61.416100 50 50 50 0.134797 0.989615 0.049910
-15.820700 -15.329200 -0.998229 50 50 50 0.997872 -0.036591 -0.053975
-16.095301 -15.133600 -0.438921 43 43 43 0.909225 0.289984 -0.298695
-16.173700 -15.692300 28.843901 5 5 5 0.478115 0.876773 0.051729
-16.582100 -15.690400 30.511700 5 5 5 0.235991 0.969951 -0.059191
-16.219101 -15.664700 31.675200 6 6 6 0.370935 0.913319 -0.168094
-16.986700 -15.678300 33.962299 4 4 4 0.166056 0.985164 -0.043319
-17.366301 -15.670800 37.290901 12 12 12 0.183673 0.970749 0.154632
-16.333200 -15.617400 37.529400 5 5 5 0.629110 0.775463 -0.053640
-17.794100 -15.656500 40.750000 7 7 7 0.169198 0.984548 0.045145
-17.620501 -15.667700 44.153999 7 7 7 0.167240 0.859198 -0.483538
-16.434401 -15.561900 45.778702 5 5 5 0.480024 0.877065 0.018284
-17.576900 -15.631300 47.583900 5 5 5 -0.201945 -0.784459 -0.586381
-17.581400 -15.557400 51.057499 15 15 15 0.203488 0.978837 0.021677
-17.627899 -15.558200 51.440300 0 0 0 0.202748 0.978670 0.033139
-17.723200 -15.684900 54.507801 48 48 48 0.072620 0.997321 -0.008833
-16.603600 -15.688100 56.103901 44 44 44 0.269302 0.958588 -0.092651
-17.723000 -15.646100 57.960201 51 51 51 0.159573 0.986797 -0.027728
-16.723000 -15.689200 59.553699 16 16 16 0.376092 0.919253 -0.116313
-17.675400 -15.647000 61.411598 53 53 53 0.147054 0.989128 0.001000
-17.460600 -13.666600 -1.315640 37 37 37 -0.030825 0.464733 0.884914
-16.560900 -8.502430 -2.029620 2 2 2 -0.261069 0.909117 -0.324576
-16.183599 -7.086620 -2.461170 22 22 22 -0.081968 0.917715 0.388690
-16.172899 5.995170 6.501220 6 6 6 0.996718 0.048045 0.065160
-16.702700 8.005730 -2.729970 11 11 11 0.010662 -0.961355 0.275106
-16.688700 8.232540 -2.435750 2 2 2 -0.106762 -0.962607 0.248977
-16.077200 7.955030 -0.380055 3 3 3 0.598267 -0.800606 0.033259
-16.057800 7.994700 1.414500 2 2 2 0.860781 -0.508916 0.007806
-16.135300 8.032380 3.663340 1 1 1 0.639664 -0.768108 0.028977
-16.126400 6.350320 6.511500 19 19 19 0.996423 0.065724 0.053127
-16.368500 8.539970 -2.542390 15 15 15 0.483088 0.391744 -0.783047
-16.630501 8.569850 0.117413 255 255 255 0.605772 0.794501 -0.042528
-17.453501 12.141400 -0.698489 54 54 54 0.825333 0.564645 -0.001181
-17.483801 12.293700 0.212706 113 113 113 0.775045 0.276195 -0.568350
-17.795700 10.755700 1.623250 24 24 24 0.345390 -0.703440 -0.621191
-17.787001 12.777700 -2.599680 73 73 73 0.193935 -0.965153 0.175697
-17.789200 12.779300 -2.349760 38 38 38 0.248422 -0.947736 0.200208
-17.480801 12.323700 0.310978 89 89 89 0.760819 0.350116 -0.546418
-17.764299 12.792100 4.563220 67 67 67 0.158982 -0.986626 0.035978
-17.063499 12.547200 7.105300 57 57 57 -0.025007 -0.986555 0.161506
-17.569201 12.851100 8.906280 63 63 63 0.144084 -0.988677 -0.041915
-17.791401 12.842400 9.402990 61 61 61 0.398192 -0.844092 0.359099
-17.735300 12.901400 11.857600 71 71 71 0.173124 -0.984675 -0.021059
-17.631201 12.927300 13.629100 26 26 26 -0.010415 -0.971942 0.234989
-17.800501 12.946100 15.502500 88 88 88 0.084940 -0.992006 -0.093324
-17.772301 12.992600 19.152500 79 79 79 0.091810 -0.977183 -0.191533
-17.768499 12.954700 19.628401 50 50 50 0.073070 -0.992162 -0.101371
-17.222300 12.755000 21.617500 66 66 66 0.928433 -0.362346 0.081957
-17.265699 12.751400 23.419300 68 68 68 0.396429 -0.917888 0.018042
-17.307800 12.781100 25.455700 61 61 61 0.935625 -0.351681 0.030426
-17.347601 12.775000 27.404400 51 51 51 0.150396 -0.987590 -0.045244
-17.393700 12.841700 29.642799 52 52 52 0.202148 -0.979297 0.010676
-17.557400 12.791700 32.192799 27 27 27 0.011096 -0.932780 -0.360276
-17.591000 17.098000 -1.244490 16 16 16 0.614390 -0.774560 0.150274
-17.796499 17.038500 -0.061349 8 8 8 0.116161 -0.982905 0.142843
-17.435400 20.477200 -1.466910 27 27 27 0.962078 0.212727 -0.170744
-17.407301 22.192301 1.026380 7 7 7 0.805681 0.584087 -0.098587
-17.419300 24.021400 -1.055100 60 60 60 -0.232369 -0.241606 -0.942142
-17.459600 23.884899 0.946350 6 6 6 0.517285 0.390149 -0.761709
-16.357700 28.039200 -0.702071 125 125 125 -0.361089 -0.302825 -0.881993
-16.318001 28.051800 -0.345925 110 110 110 -0.268104 -0.236716 -0.933855
-17.577400 29.614201 -1.288470 255 255 255 -0.123962 -0.313874 -0.941338
-15.590000 -33.193600 0.699168 15 15 15 -0.041310 0.998970 -0.018758
-15.789500 -33.180199 1.627410 21 21 21 -0.057251 0.998349 -0.004692
-14.588700 -24.217699 0.228067 4 4 4 0.925258 -0.175383 -0.336362
-15.300800 -24.901800 2.716310 8 8 8 0.070674 0.134763 0.988354
-14.577200 -21.839800 -0.936978 38 38 38 0.322332 0.561121 0.762394
-15.309700 -22.194000 -0.346706 20 20 20 0.370739 0.328849 0.868568
-14.804800 -23.628599 2.145000 1 1 1 0.905167 -0.422713 0.044567
-14.061100 -22.375000 4.383830 2 2 2 0.660396 0.750841 -0.010710
-15.349500 -21.155100 -0.913757 64 64 64 0.401333 0.661529 0.633492
-15.656100 -21.014601 0.255032 23 23 23 -0.407848 0.860952 -0.304009
-15.680300 -20.993299 1.631890 25 25 25 0.033994 0.999086 -0.025902
-15.679700 -20.993500 3.626620 68 68 68 0.165524 0.981181 -0.099431
-15.318300 -19.931900 5.810490 27 27 27 -0.750596 0.593226 -0.291012
-15.071900 -19.159300 -0.927393 3 3 3 0.358371 -0.002015 0.933577
-15.061600 -19.597900 5.810550 25 25 25 -0.684008 0.539404 -0.491098
-13.811000 -17.700800 16.616400 15 15 15 0.663981 0.744922 -0.064968
-13.853200 -17.758200 20.053400 3 3 3 0.682597 0.708607 -0.178711
-13.822100 -17.815399 23.490801 2 2 2 0.641936 0.742836 -0.190035
-13.856700 -17.815701 26.932400 2 2 2 0.634973 0.723320 -0.271325
-13.838500 -17.701700 27.407499 16 16 16 0.652514 0.748523 -0.118065
-13.860500 -17.871201 30.412201 3 3 3 0.628201 0.699721 -0.340226
-13.969100 -17.786400 33.815399 0 0 0 0.631199 0.711154 -0.309594
-14.076200 -17.741899 37.314098 4 4 4 0.609796 0.671882 -0.420385
-13.910800 -17.715401 37.633801 8 8 8 0.648711 0.725698 -0.229208
-14.184800 -17.693399 40.741699 2 2 2 0.523885 0.561059 -0.640904
-14.152900 -17.703800 44.215199 10 10 10 0.405492 0.434110 -0.804441
-14.180300 -17.693399 47.679600 9 9 9 0.605455 0.663844 -0.439017
-14.183500 -17.700001 51.123600 20 20 20 0.666390 0.737617 -0.108836
-14.329000 -17.746300 52.708401 10 10 10 0.639618 0.746983 0.181398
-14.864400 -17.762400 54.577099 65 65 65 0.667314 0.743579 0.042219
-14.094000 -18.193701 56.841099 36 36 36 0.659835 0.747396 -0.077571
-14.610900 -17.870300 58.034901 52 52 52 0.504790 0.553442 -0.662487
-14.134100 -18.199499 60.303101 33 33 33 0.654590 0.755098 0.036585
-14.710400 -17.764500 61.514000 58 58 58 0.656198 0.745904 0.114158
-15.714700 -16.293200 -0.896084 56 56 56 0.982786 0.174630 -0.060302
-15.774800 -16.288900 -0.596630 70 70 70 0.998056 0.061300 0.011295
-15.556500 -16.723101 2.907830 78 78 78 0.895889 0.440437 0.058297
-15.560100 -17.021500 3.963540 69 69 69 0.918412 0.391208 -0.058954
-15.102900 -16.809500 5.713940 52 52 52 0.628574 0.711220 -0.314741
-14.587500 -16.955601 7.520720 0 0 0 0.638237 0.769282 0.029314
-15.056400 -16.473801 9.799610 53 53 53 0.671239 0.739695 0.047844
-15.706400 -15.975700 12.071000 0 0 0 0.545566 0.836501 0.051228
-15.619000 -16.001301 13.410900 32 32 32 0.499662 0.866169 -0.009417
-15.759200 -16.033199 16.512300 0 0 0 0.448299 0.890984 0.071948
-14.609000 -16.944901 17.561501 16 16 16 0.668159 0.744015 -0.002486
-15.577500 -16.201599 19.974899 2 2 2 0.571182 0.820576 -0.020157
-15.569700 -16.244400 23.384001 1 1 1 0.591862 0.805738 -0.022026
-15.668300 -16.152300 23.437599 3 3 3 0.528656 0.848719 0.014082
-15.616000 -16.247499 26.896000 7 7 7 0.598357 0.801135 -0.012279
-15.350200 -16.352200 27.403400 15 15 15 0.638792 0.761243 -0.111596
-15.578500 -16.309000 30.348101 12 12 12 0.654665 0.741961 -0.144593
-15.564900 -16.371300 33.771000 2 2 2 0.621898 0.748302 -0.230841
-15.557300 -16.400999 37.263802 9 9 9 0.664823 0.745331 -0.049928
-15.374300 -16.414600 37.619499 9 9 9 0.661499 0.741429 -0.112708
-15.558000 -16.450300 40.726398 7 7 7 0.168382 0.188687 -0.967494
-15.556100 -16.503201 44.159801 4 4 4 0.524280 0.800565 -0.290216
-15.622200 -16.476801 47.617199 5 5 5 0.533358 0.809130 0.246652
-15.571800 -16.571100 51.063099 5 5 5 0.631381 0.703885 -0.325428
-15.695200 -16.738100 53.354401 69 69 69 0.677167 0.734322 0.047074
-15.781400 -16.951200 54.559700 51 51 51 0.575975 0.816018 0.048667
-14.581900 -17.518801 56.148899 18 18 18 0.699086 0.711108 -0.074861
-15.651000 -16.978901 57.998901 60 60 60 0.413800 0.470102 -0.779599
-15.759200 -16.560699 59.561798 14 14 14 0.669743 0.741778 0.034791
-15.589200 -16.960699 61.475101 49 49 49 0.643991 0.757693 0.105724
-15.675400 -15.501400 -0.943458 104 104 104 0.980007 -0.061700 0.189154
-15.585800 -15.564500 -0.307465 27 27 27 0.997116 -0.034961 -0.067366
-14.439100 -15.478400 12.348100 2 2 2 -0.197284 -0.391600 -0.898737
-14.827500 -15.621000 22.381300 0 0 0 0.186858 0.811320 0.553935
-15.797500 -12.952900 -1.641750 50 50 50 -0.058926 0.490616 0.869381
-15.801800 -7.715650 -1.290360 4 4 4 -0.222802 0.971421 -0.081861
-15.010200 -7.706990 -0.052618 19 19 19 -0.235139 0.960709 -0.147469
-15.803700 -7.692740 -1.293630 4 4 4 -0.203337 0.975793 -0.080504
-15.375900 -7.199320 0.694753 28 28 28 0.165844 0.984811 -0.051411
-15.401000 -7.544540 1.554200 31 31 31 -0.233305 0.971771 0.035073
-15.573500 -7.367110 5.008840 33 33 33 0.847411 -0.491270 0.201365
-14.856500 -7.326900 5.664390 2 2 2 0.825650 -0.564177 -0.002576
-14.649000 -4.953330 -1.143510 92 92 92 0.824396 0.083511 0.559819
-15.080800 -4.744000 3.953660 19 19 19 0.995544 0.084869 0.041097
-14.242000 -2.687640 -2.357700 10 10 10 -0.031715 0.387650 0.921261
-15.312300 -1.905280 3.335550 0 0 0 0.980151 0.086636 0.178319
-15.217900 -2.873930 3.410450 2 2 2 0.996120 0.083342 0.028278
-15.310200 -1.670950 3.312000 0 0 0 0.953570 0.042511 0.298158
-14.045800 0.452516 -2.355030 135 135 135 -0.141700 0.181876 0.973058
-15.493700 0.477565 3.157130 0 0 0 0.813890 0.173160 0.554616
-15.317800 3.275640 -2.506740 16 16 16 -0.031423 0.052052 0.998150
-15.644700 3.056770 2.997070 6 6 6 0.995264 0.080993 0.053751
-15.114800 4.342840 -2.541040 2 2 2 -0.023267 0.048851 0.998535
-15.786700 7.542530 -2.797070 52 52 52 0.133371 -0.674658 0.725982
-15.711100 8.196960 -2.350120 75 75 75 0.282381 -0.792930 0.539929
-15.190700 8.318170 -2.669520 25 25 25 0.548616 -0.587679 0.594688
-15.308000 8.483300 -1.891980 18 18 18 0.576240 -0.775732 0.257267
-14.804000 9.280450 0.789234 22 22 22 0.648637 -0.520901 0.554916
-15.392800 9.704350 1.498750 9 9 9 0.372141 -0.122865 0.920008
-15.756400 12.243400 1.096780 39 39 39 0.246381 -0.394265 -0.885354
-15.072300 10.998400 1.561000 61 61 61 -0.060093 -0.316118 -0.946815
-15.774700 12.907200 -2.601470 59 59 59 0.012003 -0.920990 0.389401
-15.779400 12.910900 -2.342200 68 68 68 -0.019238 -0.866541 0.498734
-14.913800 13.103900 0.903004 5 5 5 0.231544 0.195859 0.952904
-15.647700 12.604300 4.049630 67 67 67 -0.073565 -0.988123 0.134910
-14.247100 12.739400 5.561790 65 65 65 -0.031679 -0.993696 0.107538
-15.614700 12.738200 8.151340 85 85 85 0.063731 -0.992527 0.104056
-15.770500 12.666800 10.187800 55 55 55 -0.139030 -0.986742 0.083732
-15.789600 12.681300 11.408200 60 60 60 0.149392 -0.969145 0.196064
-15.783600 12.707600 13.656400 61 61 61 0.562583 -0.826736 0.002716
-15.767600 12.791600 15.633500 74 74 74 0.443592 -0.890068 -0.104907
-15.802600 12.950800 17.654600 68 68 68 -0.004068 -0.997078 0.076286
-15.792700 13.075400 19.408701 51 51 51 0.128280 -0.981444 -0.142519
-15.761900 13.248700 22.808901 26 26 26 0.319851 -0.942060 -0.101089
-15.739000 13.128000 23.620600 44 44 44 0.142777 -0.988417 -0.051445
-15.768400 13.285700 26.465000 30 30 30 0.080118 -0.983715 -0.160891
-15.773500 13.154100 27.403999 39 39 39 0.127369 -0.991428 -0.029118
-15.805300 13.179100 29.646900 39 39 39 0.139403 -0.989528 0.037433
-15.791200 13.199400 31.624800 34 34 34 0.066195 -0.997473 -0.025787
-14.985200 14.373700 15.059300 26 26 26 0.029794 -0.035926 -0.998910
-15.612700 17.740999 -1.344870 8 8 8 0.313291 -0.745610 -0.588144
-15.071700 17.256800 -0.114642 9 9 9 0.208080 -0.929366 -0.304929
-15.156400 19.729601 -1.345230 58 58 58 0.176231 -0.059834 -0.982529
-14.112200 18.805901 0.999136 10 10 10 0.195126 -0.448483 0.872232
-15.173800 21.204100 -0.900075 16 16 16 -0.096026 -0.157226 0.982883
-15.739700 21.647600 0.941141 8 8 8 -0.356287 -0.650134 0.671108
-13.829600 24.095600 26.009800 12 12 12 0.981086 0.191101 -0.030845
-13.813600 25.225000 29.781200 32 32 32 0.997590 -0.028232 0.063384
-13.852000 25.217800 31.661100 27 27 27 0.996083 0.048334 0.074049
-15.716900 27.019199 -1.354430 32 32 32 -0.197793 -0.464681 -0.863105
-13.841000 27.363600 28.915199 61 61 61 0.982782 0.183203 -0.023999
-13.806100 27.378599 29.407900 53 53 53 0.985936 0.167039 0.005212
-13.821600 27.406401 31.663200 59 59 59 0.993574 0.108202 0.033201
-14.021100 28.520201 29.432301 27 27 27 0.979157 0.203097 0.001743
-14.058300 28.409500 31.457300 26 26 26 0.982862 0.184173 0.007874
-14.107900 30.311800 32.390099 49 49 49 0.994484 0.104690 -0.006471
-13.639400 -33.056400 0.060385 44 44 44 -0.344345 0.927517 -0.145393
-13.786700 -33.055698 1.649360 24 24 24 -0.044782 0.998993 -0.002839
-13.559700 -29.938801 1.234270 8 8 8 0.106148 0.373029 -0.921728
-13.457500 -31.482100 1.631690 14 14 14 0.958647 -0.050441 -0.280092
-13.419400 -29.629900 1.958060 3 3 3 -0.068544 0.121594 -0.990210
-12.345100 -28.102100 4.661780 89 89 89 0.411122 0.645247 0.643922
-13.561700 -26.995300 -0.486261 31 31 31 0.993324 0.108536 -0.039072
-13.556100 -27.589100 1.887290 4 4 4 0.955597 -0.067909 -0.286746
-13.572600 -27.020000 3.440030 81 81 81 -0.100509 0.986685 -0.127873
-13.639300 -21.700399 -0.775135 12 12 12 0.007602 0.436952 0.899453
-13.595900 -20.806700 -0.922110 3 3 3 -0.176681 0.278459 0.944057
-12.594200 -20.495001 -0.490014 4 4 4 -0.324245 0.403395 0.855650
-11.862600 -20.443899 1.655520 54 54 54 -0.031168 0.996059 -0.083039
-11.924300 -20.429600 3.414220 63 63 63 0.147566 0.976557 0.156717
-12.842900 -19.705099 54.625900 53 53 53 0.302281 0.356787 -0.883928
-11.865400 -19.866199 58.209599 54 54 54 0.690225 0.719639 -0.075551
-11.811400 -19.951900 61.602501 15 15 15 0.714748 0.697233 0.054789
-13.786300 -17.986500 5.605460 77 77 77 0.639577 0.719259 -0.271308
-13.195400 -18.102400 8.110030 55 55 55 0.649694 0.760100 0.012071
-13.692300 -17.773399 9.653780 0 0 0 0.661866 0.735254 -0.146068
-13.755600 -17.719500 13.099000 0 0 0 0.570981 0.807026 0.150628
-13.598200 -17.795200 13.664600 30 30 30 0.558188 0.777205 0.290481
-13.604400 -17.898701 16.611799 5 5 5 0.660326 0.745792 -0.088112
-12.056400 -19.089199 18.292801 21 21 21 0.637272 0.770482 -0.015530
-13.641800 -17.951300 20.045601 1 1 1 0.662411 0.710322 -0.238021
-13.432900 -18.001200 21.463301 9 9 9 0.667187 0.744843 -0.008378
-13.673800 -17.903601 23.494499 4 4 4 0.648761 0.748305 -0.138378
-13.562800 -18.047100 26.950701 3 3 3 0.650557 0.726636 -0.220853
-13.555900 -17.940901 27.434000 16 16 16 0.656784 0.742042 -0.134195
-13.611500 -18.066500 30.385500 2 2 2 0.647293 0.716118 -0.261125
-12.565900 -18.955999 31.493700 9 9 9 0.567036 0.816832 0.106095
-13.600800 -18.103901 33.861000 3 3 3 0.651255 0.698193 -0.297311
-13.783400 -17.963600 37.313301 9 9 9 0.637839 0.695605 -0.330597
-13.567000 -18.014099 37.657799 9 9 9 0.660080 0.710055 -0.245188
-13.578800 -18.214100 40.785702 4 4 4 0.499518 0.540025 -0.677389
-13.636900 -18.206301 44.237301 5 5 5 0.306748 0.323577 -0.895100
-13.627500 -18.196699 47.692101 8 8 8 0.470699 0.539513 -0.698118
-13.579500 -18.320700 51.101601 3 3 3 0.672864 0.724433 -0.149839
-13.613800 -18.318399 52.326000 1 1 1 0.663127 0.739666 0.114705
-13.638000 -18.751801 54.631901 52 52 52 0.712853 0.700020 -0.042585
-13.338800 -18.777599 56.867199 36 36 36 0.638696 0.769442 0.005127
-13.564500 -18.699800 58.097198 62 62 62 0.605637 0.659493 -0.445279
-13.774300 -18.491899 60.313900 32 32 32 0.682970 0.729724 0.032489
-13.620600 -18.733400 61.532001 47 47 47 0.652840 0.756922 0.029479
-12.456500 -17.587900 -0.858579 3 3 3 -0.186483 0.232176 0.954630
-13.733200 -17.684999 6.255910 29 29 29 0.617152 0.718867 -0.319928
-13.770000 -17.641899 9.657910 0 0 0 0.659498 0.750433 -0.043733
-13.793600 -17.675200 13.112000 1 1 1 0.586820 0.795739 0.149805
-13.771100 -17.646900 13.663200 30 30 30 0.584154 0.785099 0.205873
-13.797300 -17.683201 16.643499 30 30 30 0.663755 0.745750 -0.057324
-13.797400 -17.686800 20.125999 25 25 25 0.684353 0.728454 0.031857
-13.792900 -17.684799 24.053499 12 12 12 0.654630 0.749852 -0.095823
-13.795000 -13.740000 -1.085900 33 33 33 0.002826 0.454170 0.890910
-13.761400 -13.439600 -1.288170 40 40 40 -0.031366 0.447255 0.893857
-13.561700 -8.192290 -2.207700 12 12 12 0.250015 -0.157694 0.955314
-13.718900 -6.934650 -2.386720 38 38 38 0.056423 0.687095 0.724374
-13.805000 -7.555970 1.001460 25 25 25 0.212768 0.976983 -0.015294
-13.656500 -4.483840 -1.130130 135 135 135 0.635187 -0.149865 0.757679
-13.267100 -2.572490 -2.321520 22 22 22 -0.056871 0.047792 0.997237
-12.074000 -1.147540 -1.191720 5 5 5 0.078886 0.276955 -0.957639
-13.800000 0.427147 -2.345850 154 154 154 -0.148082 0.185086 0.971501
-13.692700 2.856050 -2.437210 10 10 10 -0.028757 0.045343 0.998558
-13.577300 4.518660 -2.513730 19 19 19 -0.029337 0.050530 0.998292
-13.757300 7.669130 -2.742390 53 53 53 0.035611 -0.547274 0.836196
-12.882900 8.032190 -0.163258 9 9 9 0.154717 -0.964892 -0.212239
-12.066800 9.088990 -2.574110 24 24 24 -0.213694 -0.286952 0.933806
-12.677000 8.375790 1.616520 4 4 4 0.196407 -0.087986 -0.976567
-12.590000 12.054700 -2.221950 71 71 71 0.950841 -0.245573 0.188668
-13.795900 11.549800 1.102960 121 121 121 0.821741 -0.196351 -0.534965
-13.682900 10.994200 1.605180 56 56 56 0.343448 -0.474866 -0.810275
-12.876500 11.720500 3.405850 15 15 15 0.894505 -0.433688 0.108517
-13.652600 13.006600 -2.585180 32 32 32 -0.176921 -0.983900 0.025295
-13.722600 12.397200 1.106840 11 11 11 0.865012 -0.055261 -0.498699
-12.596000 12.460200 2.054610 2 2 2 0.866958 -0.130754 0.480923
-13.062100 12.754400 10.451700 66 66 66 -0.049785 -0.984395 0.168781
-13.798900 13.136600 12.845200 61 61 61 0.019070 -0.997573 -0.066960
-13.257000 12.779900 13.657800 59 59 59 0.284763 -0.955544 -0.076461
-13.768600 13.238700 15.563300 55 55 55 -0.052667 -0.954209 -0.294468
-13.777900 13.211300 19.240999 71 71 71 -0.231830 -0.970334 -0.068608
-13.318200 12.833900 19.629101 47 47 47 0.338029 -0.938274 -0.073339
-13.332400 12.846200 21.412001 44 44 44 0.623237 -0.781816 0.018438
-13.359000 12.870100 23.643400 43 43 43 0.267369 -0.963587 -0.003733
-13.320200 12.895500 25.659800 41 41 41 0.680286 -0.732702 0.018945
-13.407100 12.913400 27.651800 36 36 36 0.491255 -0.870271 0.036010
-13.569800 12.937000 30.244101 33 33 33 0.386365 -0.922344 -0.002039
-13.421400 12.956800 31.649599 32 32 32 0.593350 -0.801774 0.071382
-12.822200 14.560600 13.160700 26 26 26 0.955233 0.252400 -0.154347
-13.178200 14.813800 13.962800 32 32 32 0.872685 0.450074 -0.189351
-13.068400 14.725900 15.591700 16 16 16 0.980691 -0.117682 -0.156190
-13.310300 14.921500 17.916100 22 22 22 0.153456 -0.977697 0.143384
-13.322500 16.199699 21.219000 26 26 26 0.982297 -0.025353 0.185608
-13.388900 15.044000 21.610100 39 39 39 0.156867 -0.987440 -0.018863
-13.056100 15.007400 23.847200 47 47 47 0.999086 0.042594 -0.003665
-13.441700 14.908800 25.955900 32 32 32 0.944459 0.250983 -0.212141
-13.088100 14.514900 27.413000 39 39 39 0.968629 0.248455 0.005340
-13.129800 14.559600 29.409599 32 32 32 0.964417 0.263663 0.019564
-13.184500 14.694100 31.855801 29 29 29 0.975415 0.218562 0.028227
-13.318600 17.795799 -0.988341 69 69 69 0.539079 -0.787429 -0.298914
-13.571300 17.527800 -0.453652 34 34 34 0.112730 -0.963157 -0.244174
-13.029000 17.452600 1.627950 24 24 24 0.976870 -0.211429 0.031991
-12.826000 16.511700 15.210500 72 72 72 0.993860 0.061273 0.092132
-13.083700 16.495501 17.344000 51 51 51 0.990923 -0.018606 0.133140
-13.388300 16.492800 17.914101 47 47 47 0.340674 -0.937610 0.069490
-13.057400 16.503201 19.566799 58 58 58 0.998292 0.013798 -0.056770
-13.568800 17.969601 21.669100 40 40 40 -0.017838 -0.998639 -0.049011
-13.599700 17.912800 25.136400 10 10 10 0.232772 -0.965019 0.120644
-13.611900 17.882200 25.645599 48 48 48 0.350480 -0.925871 -0.141164
-13.308000 17.524599 28.894600 30 30 30 0.992153 0.124611 0.010184
-13.312300 17.347900 29.623699 31 31 31 0.995179 0.096059 0.019767
-13.308800 16.466299 32.160900 45 45 45 0.993745 0.109955 0.019497
-13.723700 19.025600 -1.497720 27 27 27 0.709724 -0.214146 -0.671143
-13.368200 19.083599 -0.597681 7 7 7 -0.543387 -0.734773 0.406003
-13.100500 18.900700 1.668110 2 2 2 0.956922 -0.064007 0.283201
-12.883700 18.788300 4.334410 22 22 22 0.963115 0.216879 0.159291
-13.323000 19.002600 19.153500 26 26 26 0.965420 -0.003416 -0.260677
-13.337000 19.434099 20.999500 49 49 49 0.594749 -0.775162 0.213065
-13.556700 19.437700 21.566200 60 60 60 0.255679 -0.962439 0.091324
-13.306900 19.025700 24.093599 42 42 42 0.946172 -0.322918 0.021963
-13.392000 18.940701 26.489599 71 71 71 0.993174 -0.116420 -0.007166
-13.354700 18.837400 27.617300 39 39 39 0.995384 -0.066328 0.069363
-13.406200 18.908199 29.403900 33 33 33 0.992396 -0.121131 0.021851
-13.450100 18.917299 31.448900 30 30 30 0.995856 -0.089217 0.017661
-12.614200 20.830299 -1.105020 21 21 21 0.105241 -0.178810 -0.978239
-12.251000 20.816999 1.017310 10 10 10 0.410541 -0.127469 0.902888
-12.911700 20.670401 1.456360 7 7 7 0.161595 -0.303158 0.939139
-13.057300 20.670799 4.265300 41 41 41 0.975066 0.114261 0.190238
-13.074600 21.046600 7.704340 92 92 92 0.993273 0.098519 0.060858
-13.336200 20.747101 20.581200 39 39 39 0.967800 0.247995 0.043148
-13.419400 20.760599 22.856300 51 51 51 0.976326 0.216182 -0.007275
-13.588100 21.193899 24.742901 16 16 16 0.993297 0.093919 0.067377
-13.574600 21.054300 26.444599 51 51 51 0.997862 -0.008478 -0.064797
-13.568700 22.130699 27.654301 37 37 37 0.989373 0.145132 0.008820
-13.556200 21.021299 30.505199 32 32 32 0.984465 0.175498 -0.005449
-13.571200 20.929800 31.408300 30 30 30 0.983814 0.172547 -0.048355
-12.663700 24.008499 -1.138560 35 35 35 0.949765 0.282323 0.135052
-13.327700 24.009001 -0.458391 136 136 136 0.880575 0.397314 -0.258322
-13.109800 22.468800 4.009460 87 87 87 0.982252 0.106644 0.154300
-13.109500 23.965000 5.404680 82 82 82 0.998653 0.047899 0.019968
-13.560600 23.491800 23.210199 23 23 23 0.994572 0.103933 0.005030
-13.585200 22.667801 24.587299 72 72 72 0.991632 0.084861 0.097286
-13.567800 22.378401 26.587299 41 41 41 0.995098 0.096145 -0.023152
-13.579900 22.333900 27.660299 38 38 38 0.986759 0.162169 -0.002674
-13.631600 22.416800 29.645100 35 35 35 0.995051 0.095026 0.029040
-13.666300 22.348400 31.656401 29 29 29 0.987251 0.158968 -0.007997
-12.874000 24.406900 -0.637564 23 23 23 0.904235 0.414580 0.102386
-13.418200 24.459900 0.796754 6 6 6 0.994910 0.088122 -0.048871
-13.602700 25.094400 1.858730 6 6 6 0.900727 0.427007 0.079722
-13.258900 24.828400 4.547590 52 52 52 0.991645 0.072603 0.106628
-13.673900 25.128099 23.451900 41 41 41 0.994548 0.097928 0.035838
-13.573900 25.625200 27.941401 61 61 61 0.999592 -0.021793 0.018454
-13.665200 25.639099 29.620399 58 58 58 0.995480 -0.024361 0.091791
-13.757400 25.654200 31.403999 53 53 53 0.999142 0.010386 0.040105
-13.758200 27.371300 28.349800 63 63 63 0.989230 0.145022 0.019811
-13.714200 26.611099 30.552099 22 22 22 0.998961 0.036711 0.027014
-13.781600 27.413601 31.554001 58 58 58 0.994163 0.106388 0.017918
-9.823370 -47.743198 4.873250 78 78 78 0.965755 0.003823 -0.259426
-9.992380 -40.756901 4.399280 16 16 16 0.968257 -0.115427 -0.221710
-10.091600 -38.619701 3.381170 81 81 81 0.942516 0.267101 -0.200800
-10.771800 -38.631802 5.378890 53 53 53 0.472013 0.789977 0.391331
-11.353500 -39.009300 6.169190 2 2 2 0.509659 0.594923 0.621541
-10.281100 -38.077400 54.979900 50 50 50 0.997649 0.068329 0.005225
-10.360600 -37.519299 3.710020 40 40 40 0.941347 0.325600 -0.088598
-9.894350 -36.015701 6.047760 49 49 49 0.977220 0.069850 -0.200404
-10.330800 -37.515202 54.971001 48 48 48 0.997795 0.066178 0.005039
-10.502400 -35.858898 61.864601 47 47 47 0.998093 0.061176 0.008244
-10.558700 -34.339401 3.308180 46 46 46 0.998082 0.061455 0.007480
-10.560400 -34.345402 3.626640 36 36 36 0.997917 0.062938 0.014184
-9.923740 -35.591499 5.998310 37 37 37 0.971165 0.077939 -0.225308
-10.566200 -34.608700 54.936501 49 49 49 0.998390 0.056614 -0.003487
-10.573000 -34.643398 61.849800 51 51 51 0.997899 0.063642 0.012173
-10.602800 -33.574699 3.177480 45 45 45 0.997953 0.062706 0.012599
-10.605700 -33.584599 3.625110 36 36 36 0.997950 0.063210 0.010019
-10.034100 -32.810902 23.881800 7 7 7 0.998047 0.060884 0.013968
-10.641000 -33.642700 54.929401 52 52 52 0.998450 0.054892 -0.009140
-10.603300 -33.529499 58.380798 50 50 50 0.997930 0.064210 0.003655
-10.632400 -33.627602 61.841801 47 47 47 0.997815 0.065012 0.011731
-11.610700 -30.274200 1.799590 52 52 52 -0.681454 0.728979 0.064888
-10.212200 -30.211100 3.409080 40 40 40 0.878804 0.476825 -0.018476
-10.115600 -30.585199 20.650299 4 4 4 0.997889 0.062944 0.015971
-10.203200 -30.215599 23.808500 5 5 5 0.998249 0.057093 0.015469
-10.817100 -30.680099 54.895302 53 53 53 0.998236 0.058646 -0.009285
-10.814600 -30.678801 58.346199 51 51 51 0.998413 0.056143 0.004426
-10.817000 -31.318899 61.809299 53 53 53 0.997827 0.062387 0.021176
-11.259800 -29.582199 0.265280 94 94 94 -0.462071 0.880068 0.109409
-11.345000 -29.581499 1.957170 47 47 47 -0.196756 0.957480 -0.210996
-10.809000 -29.511200 3.808760 102 102 102 0.805029 0.535977 0.254277
-10.194400 -29.685801 20.333500 4 4 4 0.998301 0.057342 0.010351
-10.314100 -28.296900 23.835600 7 7 7 0.998079 0.059503 0.017272
-10.333800 -28.582399 27.493500 3 3 3 0.998037 0.061551 0.011528
-10.345700 -29.663601 30.663200 4 4 4 0.998197 0.057199 0.018214
-10.713400 -28.328300 51.360699 5 5 5 0.996171 0.064572 0.058938
-10.651300 -28.164600 51.506302 4 4 4 0.993937 0.072786 0.082404
-10.816400 -29.610800 54.883900 51 51 51 0.997835 0.065703 -0.002858
-10.884500 -29.686100 58.342899 49 49 49 0.998020 0.061702 0.012205
-10.878000 -29.673401 61.791100 48 48 48 0.998043 0.061887 0.008937
-11.620200 -27.570601 2.407540 37 37 37 0.450842 0.542369 -0.708927
-11.800200 -26.952600 3.423200 58 58 58 0.069702 0.997451 0.015250
-10.353700 -26.722000 20.490000 4 4 4 0.997937 0.057175 0.029196
-10.357600 -27.658899 23.819000 7 7 7 0.998172 0.058025 0.016911
-10.429900 -27.336800 27.251101 7 7 7 0.998257 0.056532 0.016974
-10.475000 -26.357901 27.598400 5 5 5 0.997964 0.062046 0.014773
-10.593500 -27.070601 41.077900 13 13 13 0.997435 0.070075 0.014567
-10.807300 -26.833099 51.366100 5 5 5 0.996566 0.058903 0.058203
-11.064700 -27.179701 54.857498 55 55 55 -0.021197 -0.013047 -0.999690
-11.065000 -27.577999 58.317902 56 56 56 0.997781 0.066135 0.007633
-11.060900 -27.672501 61.768101 54 54 54 0.997696 0.063955 0.022631
-10.455300 -24.477301 17.058399 5 5 5 0.999721 0.022044 0.008525
-9.935600 -24.360001 18.054100 5 5 5 0.932521 0.340199 0.121116
-10.479200 -24.714500 20.654900 5 5 5 0.991116 0.062239 0.117543
-10.557700 -24.224501 24.069099 5 5 5 0.997964 0.061701 -0.016172
-10.563700 -25.010700 27.425699 3 3 3 0.998064 0.059722 0.017342
-10.584700 -24.978600 30.748899 5 5 5 0.997576 0.068992 0.009040
-10.730100 -25.602600 40.997898 6 6 6 0.997813 0.064852 0.012771
-10.820700 -25.024200 44.433601 5 5 5 0.998022 0.061351 0.013693
-10.865700 -24.623400 47.896099 9 9 9 0.997427 0.070567 0.012605
-10.905600 -24.302299 51.377300 12 12 12 0.995740 0.064475 0.065920
-11.164400 -25.656601 54.832901 60 60 60 0.997631 0.065690 -0.020441
-11.136700 -25.684200 58.294701 57 57 57 0.997771 0.066727 0.000028
-11.201900 -25.662800 61.748901 58 58 58 0.997936 0.057428 0.028740
-10.492500 -22.491800 10.060200 6 6 6 0.953907 0.297254 -0.041238
-10.582000 -21.756800 13.709100 6 6 6 0.930528 0.329834 -0.159145
-10.582100 -22.475100 17.044201 6 6 6 0.913707 0.056143 -0.402477
-10.096300 -23.638700 17.825600 6 6 6 0.963363 0.249000 0.099657
-10.579800 -23.617201 20.287001 5 5 5 0.974719 0.048129 0.218191
-10.599300 -23.585199 23.903299 4 4 4 0.998087 0.061445 -0.006836
-10.647400 -23.462000 27.364700 4 4 4 0.997999 0.061105 0.016256
-10.814400 -21.766001 28.144300 1 1 1 0.990736 0.131374 -0.034381
-10.687500 -23.477100 30.759399 5 5 5 0.997444 0.070627 0.010848
-10.868300 -22.086700 34.037998 4 4 4 0.958183 0.281606 -0.050828
-10.823000 -23.545000 37.502201 4 4 4 0.992154 0.124601 0.010235
-10.872700 -23.507401 40.958000 4 4 4 0.996415 0.083689 0.012364
-10.968700 -22.955601 44.387001 1 1 1 0.992938 0.116154 0.024149
-10.927400 -23.473600 47.916801 12 12 12 0.992629 0.121029 0.006312
-11.125400 -21.861500 51.285000 4 4 4 0.936949 0.325509 -0.127160
-10.959200 -23.320000 51.687302 0 0 0 0.992148 0.091553 0.085205
-11.318500 -23.098700 54.810200 60 60 60 0.995884 0.064288 0.063892
-11.333100 -23.057501 58.258900 56 56 56 0.996899 0.074032 0.026667
-11.320800 -23.407000 61.725300 54 54 54 0.997404 0.071652 0.007114
-11.420900 -20.443100 -0.655905 67 67 67 0.644420 0.251753 -0.722041
-11.660600 -20.446699 0.208364 76 76 76 0.132994 0.987100 0.089145
-11.787300 -20.371500 1.595000 15 15 15 -0.035308 0.998651 -0.038065
-11.778800 -20.417500 3.642140 89 89 89 0.203710 0.975813 0.079317
-11.067100 -20.350100 5.418020 71 71 71 0.608103 0.778301 -0.156393
-10.667800 -20.280300 9.184700 36 36 36 0.765277 0.576162 0.287034
-11.312100 -19.784599 9.813880 0 0 0 0.692660 0.719970 -0.043192
-11.077900 -19.954901 13.260400 0 0 0 0.681565 0.731751 -0.003149
-11.076600 -19.895500 13.645400 26 26 26 0.651102 0.753759 0.088959
-11.310200 -19.788900 16.750999 1 1 1 0.680064 0.729141 -0.076592
-11.464300 -20.296101 17.861000 1 1 1 0.689727 0.542868 0.479136
-11.310800 -19.794399 20.214199 4 4 4 0.688952 0.723100 -0.049716
-10.821800 -20.155899 21.552900 13 13 13 0.799466 0.582289 -0.147627
-11.422100 -19.707199 23.653900 4 4 4 0.680251 0.732636 -0.022434
-11.312600 -19.805500 27.088900 3 3 3 0.703433 0.710633 -0.013512
-11.101500 -19.900299 27.405899 16 16 16 0.674651 0.737927 -0.017590
-11.359600 -19.833099 30.549900 1 1 1 0.659953 0.703497 -0.263731
-10.938600 -20.086100 33.102200 5 5 5 0.748546 0.640522 0.171493
-11.306100 -19.860701 34.012699 3 3 3 0.623245 0.752201 -0.213916
-10.991500 -20.005899 36.278702 6 6 6 0.628832 0.775414 0.057469
-11.339300 -19.863600 37.471802 3 3 3 0.627911 0.773355 -0.087467
-11.447000 -19.768700 40.907600 4 4 4 0.663540 0.748105 0.007276
-11.070800 -19.975300 42.200901 3 3 3 0.690274 0.723015 -0.027778
-11.321900 -19.899300 44.393902 3 3 3 0.669712 0.711169 0.213833
-11.378400 -19.884001 47.839901 2 2 2 0.665054 0.746790 0.002610
-11.571300 -19.759100 51.258900 2 2 2 0.622427 0.782582 -0.012251
-11.568500 -19.812000 52.811298 2 2 2 0.548885 0.827789 0.116150
-11.732300 -20.036501 54.521500 3 3 3 0.678648 0.722412 0.132504
-11.571200 -19.820000 56.277000 1 1 1 0.718009 0.689589 -0.094496
-11.601800 -20.052401 58.197498 44 44 44 0.700049 0.711666 -0.058843
-11.683600 -20.016500 61.176201 9 9 9 0.630085 0.761551 0.151765
-11.706900 -19.999599 61.582500 7 7 7 0.772615 0.633982 0.033648
-11.394100 -19.405199 -0.687622 96 96 96 0.963640 0.034244 -0.264999
-11.561900 -19.412300 -0.498610 32 32 32 0.827815 0.070703 -0.556528
-11.363900 -19.639900 1.509790 9 9 9 0.766746 0.151830 0.623737
-11.607900 -19.497900 9.858560 4 4 4 0.642521 0.762841 -0.072389
-11.606900 -19.499599 13.306600 4 4 4 0.619373 0.785096 0.000952
-11.607600 -19.444000 13.658100 31 31 31 0.618298 0.780660 0.090983
-11.571000 -19.557301 16.749800 3 3 3 0.617782 0.776431 -0.124504
-11.601900 -19.556900 20.205500 3 3 3 0.626395 0.777968 -0.048949
-11.627400 -19.546301 23.662300 3 3 3 0.614532 0.785860 -0.069094
-11.585200 -19.593300 27.111300 4 4 4 0.641863 0.762098 -0.084959
-11.603000 -19.452400 27.628401 13 13 13 0.636352 0.753516 -0.165136
-11.591400 -19.607500 30.548800 3 3 3 0.614530 0.771846 -0.163118
-11.632200 -19.623400 34.011002 1 1 1 0.558523 0.807508 -0.189691
-11.628700 -19.621000 37.459202 3 3 3 0.602607 0.794695 -0.072976
-11.610900 -19.651199 40.907200 2 2 2 0.648013 0.761573 -0.009227
-11.606000 -19.646400 44.365501 6 6 6 0.688406 0.710043 0.148108
-11.635900 -19.643400 47.838299 3 3 3 0.639063 0.717656 0.276710
-11.631800 -19.639700 51.261501 6 6 6 0.533723 0.845322 0.023864
-11.760000 -19.631201 52.827202 4 4 4 0.512278 0.854454 0.086488
-11.801700 -19.589399 54.762100 54 54 54 0.498562 0.843311 -0.200654
-11.729800 -19.583700 55.936199 0 0 0 0.560724 0.769011 -0.306938
-11.775400 -19.661800 58.237202 60 60 60 0.551409 0.833803 -0.026851
-11.739800 -19.657900 59.773102 7 7 7 0.413221 0.910595 -0.008093
-11.786600 -19.683701 61.683701 49 49 49 0.606400 0.783477 -0.135802
-11.644100 -16.393801 -0.883335 4 4 4 0.057962 0.117066 0.991431
-11.743900 -17.034700 12.496900 39 39 39 -0.336487 -0.206950 -0.918667
-11.622000 -14.810500 -1.090330 18 18 18 0.183980 0.332417 0.925014
-10.311700 -13.703300 -0.542918 85 85 85 -0.721347 0.685232 -0.100577
-11.791100 -12.708100 -1.591810 35 35 35 -0.052055 0.357691 0.932388
-10.354400 -13.613000 -0.152752 68 68 68 0.824364 -0.555771 0.107435
-10.108400 -12.752600 3.399610 29 29 29 -0.085786 0.197425 -0.976557
-10.055600 -12.751900 3.424090 19 19 19 -0.102151 0.203421 -0.973748
-11.767800 -10.155300 -2.043020 11 11 11 -0.035161 0.076347 0.996461
-10.260100 -9.695760 2.136740 33 33 33 -0.187706 0.056535 -0.980597
-11.769800 -7.793690 -2.185850 19 19 19 -0.016898 0.118331 0.992830
-10.647000 -8.333720 -0.274996 21 21 21 -0.426581 0.869795 -0.247962
-11.063000 -8.482410 1.918760 21 21 21 0.244078 -0.163763 -0.955828
-10.277500 -7.800880 3.779890 0 0 0 0.268634 0.536755 0.799831
-11.748900 -7.444580 -2.204350 24 24 24 -0.011935 0.174970 0.984501
-10.488700 -7.651710 1.347060 48 48 48 0.037545 0.941405 0.335183
-11.065600 -6.296050 2.906120 42 42 42 0.216271 0.210064 -0.953467
-10.611600 -7.204580 3.633990 61 61 61 0.096154 0.551261 0.828774
-11.702900 -4.897220 -2.341360 14 14 14 -0.020651 -0.024615 0.999484
-10.420200 -5.652380 2.912830 26 26 26 0.902574 0.017530 -0.430177
-11.347700 -5.596570 4.666760 2 2 2 -0.092970 0.986072 -0.137905
-11.758600 -3.471200 -2.309390 16 16 16 -0.021316 -0.018686 0.999598
-11.729200 -1.488320 -1.161740 0 0 0 0.093517 0.278472 -0.955881
-10.657500 -0.113078 -0.255302 54 54 54 0.794779 -0.499117 0.345267
-11.738400 0.496056 -2.303780 25 25 25 -0.099812 0.291837 0.951246
-11.769200 2.470460 -2.365920 13 13 13 -0.025429 0.041905 0.998798
-11.574300 4.493160 -2.460510 14 14 14 -0.027578 0.052450 0.998243
-11.115000 6.738360 -2.633670 11 11 11 -0.045938 0.019389 0.998756
-10.670800 6.469060 -2.593790 10 10 10 -0.036044 0.043731 0.998393
-10.868800 7.200980 1.383380 12 12 12 0.608636 -0.325634 -0.723550
-9.823210 6.348680 2.755780 41 41 41 0.836419 -0.435609 0.332638
-10.356400 7.049340 3.513380 55 55 55 0.024198 -0.998602 0.046998
-11.729000 8.927460 -2.568360 22 22 22 -0.249744 -0.381988 0.889783
-10.372400 8.998600 1.951590 30 30 30 0.342123 0.002679 -0.939651
-11.763100 10.817800 -1.370260 6 6 6 -0.641324 -0.752755 -0.148539
-11.593700 11.155900 0.557658 114 114 114 -0.122487 -0.746945 0.653506
-11.770800 11.099200 1.723820 6 6 6 -0.234519 -0.551562 -0.800488
-11.782600 13.121500 -2.551710 42 42 42 0.294204 -0.927895 0.229031
-11.556600 12.390500 1.090500 30 30 30 -0.110126 -0.507418 -0.854634
-11.320000 12.321600 1.809400 3 3 3 0.123507 -0.831831 0.541113
-9.975360 15.322300 -1.840600 3 3 3 -0.131072 0.028206 0.990971
-11.577800 18.028200 -1.295610 24 24 24 0.220912 -0.952095 0.211453
-11.770500 17.542400 0.099391 22 22 22 -0.166979 -0.974899 -0.147275
-11.209300 17.647699 1.657850 29 29 29 -0.034969 -0.995888 -0.083572
-11.485000 19.572800 -1.220620 46 46 46 0.148383 -0.433301 -0.888950
-11.596000 18.307501 1.054620 4 4 4 -0.465820 -0.498387 0.731179
-10.192300 19.028700 3.606020 37 37 37 -0.249830 -0.944742 0.212243
-11.027100 21.490101 -1.687720 40 40 40 0.673493 0.248422 0.696199
-9.759500 -47.737499 4.954910 68 68 68 0.971341 0.001797 -0.237684
-9.690330 -47.724800 5.645740 84 84 84 0.984500 -0.055424 -0.166395
-9.366310 -47.690399 5.891480 64 64 64 0.990287 0.014368 -0.138294
-9.057420 -45.195599 7.319550 67 67 67 0.960711 0.031758 -0.275727
-9.056630 -45.193600 8.511730 16 16 16 0.987700 0.025678 -0.154237
-9.474650 -42.798698 6.288920 37 37 37 0.917153 -0.049434 -0.395459
-9.556500 -41.453499 6.121000 33 33 33 0.938532 -0.079021 -0.336026
-8.229020 -40.534199 7.931330 1 1 1 0.821507 -0.106038 -0.560252
-9.670620 -39.227001 4.017450 33 33 33 0.918236 0.395966 0.007287
-9.765310 -38.567101 5.516580 66 66 66 0.983633 0.157218 -0.088031
-7.811610 -38.477402 7.426640 1 1 1 0.754231 -0.205818 -0.623518
-8.802660 -28.502300 4.295060 14 14 14 0.401060 -0.150019 -0.903684
-8.202890 -26.441700 4.049160 23 23 23 -0.146766 0.720299 -0.677960
