ply
format ascii 1.0
element vertex 707
property float x
property float y
property float z
property uchar red
property uchar green
property uchar blue
property float nx
property float ny
property float nz
end_header
-81.541702 -17.002501 37.782299 40 40 40 -0.049979 0.998734 0.005661
-81.491600 -16.992300 38.391300 35 35 35 -0.050669 0.998703 0.005070
-81.535400 -17.003300 41.890400 29 29 29 -0.053280 0.998521 0.010816
-80.303902 -16.961000 44.889801 18 18 18 -0.019665 0.999771 0.008401
-81.403099 -17.087900 49.758202 6 6 6 -0.031203 0.999490 0.006765
-80.397102 -17.200100 59.832001 20 20 20 -0.066293 0.997722 0.012460
-81.493797 -17.221201 60.700001 20 20 20 -0.061071 0.998076 0.010690
-81.508499 -17.337700 71.860397 21 21 21 0.539898 0.838236 0.076618
-81.274002 -16.291800 -1.803150 2 2 2 0.327952 0.162360 0.930638
-80.320099 -16.633499 16.590700 4 4 4 0.028878 0.999579 0.002704
-80.295097 -16.629400 19.279301 1 1 1 0.012887 0.999832 0.013015
-81.220901 8.975280 7.690320 22 22 22 0.056886 -0.998360 -0.006504
-81.210297 8.974060 8.000170 23 23 23 0.057064 -0.998347 -0.006909
-81.128197 8.964390 10.068600 21 21 21 0.058852 -0.998244 -0.006734
-81.030899 8.952740 12.036100 24 24 24 0.063002 -0.997979 -0.008319
-81.516403 8.903140 14.456800 21 21 21 0.058920 -0.998206 -0.010683
-81.404701 8.890350 16.028500 23 23 23 0.057613 -0.998207 -0.016238
-81.244003 8.872110 18.035200 20 20 20 0.057495 -0.998328 -0.005989
-81.126503 8.858550 20.058001 19 19 19 0.056010 -0.998333 -0.013954
-81.014000 8.845260 21.993000 19 19 19 0.057832 -0.998314 -0.004887
-81.485199 8.790320 25.151800 24 24 24 0.059120 -0.998203 -0.009777
-81.436600 8.784830 26.037500 15 15 15 0.059655 -0.998201 -0.005915
-81.320297 8.771140 28.051901 19 19 19 0.056150 -0.998337 -0.013039
-81.189697 8.756140 30.087099 16 16 16 0.059371 -0.998198 -0.008738
-81.098801 8.745450 32.044899 14 14 14 0.058681 -0.998194 -0.012871
-81.543701 8.684840 35.753201 19 19 19 0.059603 -0.998200 -0.006674
-81.537003 8.684060 35.995701 19 19 19 0.059972 -0.998178 -0.006653
-79.412102 -17.592100 10.534500 14 14 14 0.142284 0.989822 0.002910
-78.927002 -16.872999 36.845299 8 8 8 0.034435 0.998525 -0.041976
-78.407402 -16.870701 43.966400 6 6 6 -0.036145 0.999333 0.005289
-78.928101 -16.877300 44.206799 11 11 11 -0.042119 0.998985 0.015980
-78.402702 -16.871500 47.569599 9 9 9 -0.043006 0.999020 -0.010482
-78.665802 -16.929199 49.519600 8 8 8 -0.030755 0.999508 -0.006109
-79.071404 -17.017401 51.044498 24 24 24 -0.029931 0.999527 0.007046
-77.865097 -17.071800 65.532501 20 20 20 0.126034 0.988095 0.088230
-79.249100 -17.170200 66.926399 8 8 8 0.587094 0.808418 0.042205
-78.580902 -15.961600 -2.704940 102 102 102 0.038659 -0.237977 0.970501
-78.200996 -16.089100 4.179590 11 11 11 -0.090168 0.990695 0.101951
-79.524696 -16.678499 19.050400 2 2 2 0.050261 0.996291 -0.069849
-78.044701 3.785170 -2.412170 255 255 255 -0.024851 -0.096072 0.995064
-79.444099 9.078810 8.055230 24 24 24 0.059364 -0.998205 -0.007867
-79.382301 9.070700 11.204400 26 26 26 0.061476 -0.998085 -0.006915
-79.326103 9.063860 12.016000 24 24 24 0.061786 -0.998018 -0.011915
-79.142700 9.041750 15.288000 24 24 24 0.061699 -0.998002 -0.013640
-79.543999 8.985190 16.849400 22 22 22 0.062903 -0.997941 -0.012563
-79.496002 8.979250 17.992100 22 22 22 0.065237 -0.997854 -0.005663
-79.364700 8.963640 20.296801 22 22 22 0.064941 -0.997767 -0.015606
-79.288399 8.954050 21.993900 22 22 22 0.061995 -0.998067 -0.004406
-79.170502 8.939960 24.021500 22 22 22 0.061356 -0.998013 -0.014304
-79.063004 8.926980 26.073400 20 20 20 0.061369 -0.998099 -0.005681
-79.540398 8.879930 28.269300 21 21 21 0.063964 -0.997876 -0.012329
-79.401497 8.863590 30.039301 19 19 19 0.062572 -0.997994 -0.009647
-79.279999 8.849080 32.067299 17 17 17 0.059526 -0.998131 -0.013806
-79.165604 8.835380 34.011501 18 18 18 0.064274 -0.997905 -0.007361
-79.103500 8.827450 36.013199 16 16 16 0.065943 -0.997801 -0.006691
-79.036598 8.818690 38.048901 17 17 17 0.064497 -0.997890 -0.007465
-76.247200 -24.015301 77.487198 38 38 38 0.688277 0.715772 0.118091
-75.883698 -22.340200 77.324997 11 11 11 0.527074 0.842261 0.113092
-76.049599 -17.752600 16.794201 42 42 42 0.184949 0.977466 -0.101757
-75.977501 -17.539301 19.609699 42 42 42 0.192084 0.980807 -0.033477
-76.063599 -17.859900 22.253599 32 32 32 0.245785 0.968632 0.036621
-76.047897 -17.755800 24.886600 25 25 25 0.145558 0.988391 0.043555
-76.056702 -17.759300 27.841000 39 39 39 0.126164 0.990738 0.050205
-76.028000 -17.653601 28.018801 38 38 38 0.111233 0.992962 0.040664
-76.089500 -17.768101 30.761600 37 37 37 0.170018 0.985025 0.028616
-76.089203 -17.769501 33.280998 29 29 29 0.162355 0.986593 0.016606
-76.096199 -17.772699 36.223801 38 38 38 0.148708 0.988579 0.024445
-75.938103 -17.236000 38.849400 29 29 29 0.051315 0.997814 -0.041638
-77.174500 -16.807699 43.356602 31 31 31 -0.047995 0.998846 -0.001920
-76.107697 -17.779900 44.686199 30 30 30 0.179043 0.983807 -0.008191
-77.203499 -16.817101 48.553699 41 41 41 -0.048496 0.998768 -0.010527
-76.592400 -15.756600 -0.627132 84 84 84 0.134908 0.988303 0.071111
-77.524803 -16.050400 4.171950 11 11 11 -0.077090 0.992602 0.093796
-75.710999 -16.674500 19.610500 45 45 45 -0.043408 0.992884 0.110892
-76.683296 9.252120 7.859490 27 27 27 0.066544 -0.997754 -0.007659
-77.184700 9.214730 8.030610 25 25 25 0.065512 -0.997843 -0.004281
-77.124100 9.206510 10.795000 21 21 21 0.064069 -0.997938 -0.003846
-77.521301 9.155730 13.693700 26 26 26 0.064864 -0.997836 -0.010787
-77.484596 9.151000 14.294300 22 22 22 0.064744 -0.997849 -0.010318
-77.379097 9.137950 15.997000 26 26 26 0.064242 -0.997853 -0.012722
-77.285301 9.125900 18.026600 24 24 24 0.062858 -0.997992 -0.007816
-77.139397 9.107950 20.061600 23 23 23 0.063129 -0.997885 -0.015494
-77.534302 9.054460 23.348200 23 23 23 0.064020 -0.997896 -0.010291
-77.429298 9.041610 24.497900 20 20 20 0.065144 -0.997800 -0.012298
-77.387802 9.036080 25.996300 22 22 22 0.063882 -0.997936 -0.006466
-77.268097 9.021220 28.036699 20 20 20 0.065841 -0.997776 -0.010398
-77.156097 9.007280 29.994600 19 19 19 0.062039 -0.997973 -0.014206
-77.537300 8.950700 32.207500 19 19 19 0.060843 -0.998074 -0.012116
-77.483398 8.943590 34.035301 17 17 17 0.062246 -0.998052 -0.004226
-77.419899 8.935290 36.004601 17 17 17 0.061536 -0.998076 -0.007651
-77.347000 8.925830 38.008598 14 14 14 0.063413 -0.997954 -0.008213
-75.671997 9.325030 7.615480 22 22 22 0.072962 -0.997277 -0.010718
-75.633698 9.320260 7.998690 24 24 24 0.069430 -0.997563 -0.006935
-75.557701 9.309960 10.414900 19 19 19 0.082694 -0.996564 -0.004716
-75.542000 -22.239799 77.564003 31 31 31 0.499841 0.859236 0.108958
-73.846901 9.289580 -1.326650 10 10 10 0.139933 -0.988111 -0.063674
-75.413803 9.290860 13.723500 22 22 22 0.113568 -0.993442 -0.013258
-75.392601 9.288200 14.015500 25 25 25 0.094478 -0.995488 -0.008826
-75.253998 9.270450 16.069099 26 26 26 0.104627 -0.994475 -0.008506
-75.139801 9.255420 18.041201 21 21 21 0.094771 -0.995476 -0.006800
-75.537498 9.206530 20.190201 25 25 25 0.063123 -0.997895 -0.014861
-75.435898 9.193420 22.011499 20 20 20 0.064980 -0.997869 -0.005963
-75.366501 9.183900 24.074600 23 23 23 0.101873 -0.994733 -0.011293
-75.236298 9.167200 26.039600 21 21 21 0.104781 -0.994465 -0.007753
-75.182602 9.159820 28.056601 24 24 24 0.062695 -0.997959 -0.012153
-75.538300 9.104770 30.404800 22 22 22 0.064062 -0.997863 -0.012836
-75.410698 9.088570 32.023201 18 18 18 0.131107 -0.991317 -0.010123
-75.340202 9.078860 34.031101 18 18 18 0.064871 -0.997891 -0.002443
-75.281601 9.070730 36.202202 16 16 16 0.064648 -0.997871 -0.008559
-75.219101 9.062220 38.060299 15 15 15 0.074787 -0.997094 -0.014518
-73.854897 9.385160 -1.352740 7 7 7 0.126436 -0.988550 -0.082356
-75.170403 9.358370 7.446020 24 24 24 0.078699 -0.996890 -0.004038
-75.128403 9.353060 8.018620 25 25 25 0.079580 -0.996825 -0.002716
-75.543297 9.307790 11.193500 23 23 23 0.070892 -0.997471 -0.005079
-75.508598 9.303370 12.071300 28 28 28 0.071046 -0.997425 -0.009751
-74.878197 9.319840 13.995600 23 23 23 0.208063 -0.978078 0.008589
-74.759003 9.304080 16.037600 25 25 25 0.173969 -0.984739 -0.004855
-74.169403 9.323330 18.064501 23 23 23 0.083473 -0.996289 -0.021003
-74.005402 9.587430 20.053101 74 74 74 0.304266 -0.952239 0.025775
-74.026901 9.493110 23.745199 65 65 65 0.282851 -0.959090 -0.011892
-74.044899 9.494640 25.621201 62 62 62 0.298642 -0.954143 -0.020598
-74.027603 9.587690 26.015699 37 37 37 0.377110 -0.926126 -0.008881
-74.092102 9.593130 31.974400 58 58 58 0.420946 -0.907080 0.003287
-74.085197 9.496450 32.102200 60 60 60 0.349960 -0.936554 0.019850
-74.098198 9.306500 35.086601 54 54 54 0.184873 -0.982416 -0.026096
-73.680496 9.442570 36.100700 6 6 6 0.238318 -0.970959 0.021048
-74.062897 11.308200 8.187630 5 5 5 0.789932 -0.286679 0.542054
-74.008301 11.774400 11.721400 12 12 12 0.976276 -0.205372 -0.068618
-74.051804 11.492900 15.778400 10 10 10 0.998367 0.048718 0.029843
-74.079803 11.402400 16.005199 13 13 13 0.998292 0.056828 -0.013521
-74.210800 13.725900 16.430700 16 16 16 0.998129 0.061078 0.002983
-72.268097 -15.723100 4.263300 12 12 12 -0.059476 0.993230 0.099788
-73.243599 9.481310 35.634800 9 9 9 0.211125 -0.977459 -0.000487
-73.221497 9.478010 36.082500 7 7 7 0.211543 -0.977247 0.015424
-69.729698 -16.830601 10.724000 27 27 27 -0.061900 0.974674 0.214894
-70.481400 -15.611800 3.954290 17 17 17 -0.060898 0.997912 -0.021530
-71.087402 -15.650800 4.140850 13 13 13 -0.061958 0.997426 -0.036100
-71.414497 9.985500 8.286320 5 5 5 0.131856 0.502522 -0.854451
-69.681900 10.725500 14.777400 6 6 6 0.868167 -0.247046 0.430413
-69.617104 10.885500 33.018799 3 3 3 0.692411 0.087797 -0.716142
-70.424400 9.386420 34.426102 11 11 11 0.415734 -0.901621 -0.119353
-69.551201 13.036600 33.077900 12 12 12 0.806037 0.044516 -0.590189
-69.801102 14.358800 33.053001 2 2 2 0.777854 0.095063 -0.621213
-70.048203 16.540800 20.631800 8 8 8 0.866134 0.174549 -0.468343
-69.872597 16.677900 33.096901 6 6 6 0.836444 0.232565 -0.496260
-69.927902 18.094900 20.700399 0 0 0 0.969759 0.208958 -0.126115
-69.903297 17.430700 33.088699 4 4 4 0.775720 0.630943 -0.013009
-69.550903 17.431601 38.175301 28 28 28 0.993946 0.108648 0.016322
-69.247704 -16.809200 10.495400 3 3 3 -0.103159 0.974467 0.199431
-69.302498 -15.534900 4.109700 11 11 11 -0.056361 0.997701 -0.037635
-69.044296 10.456800 -2.285380 8 8 8 0.995834 0.090344 -0.012329
-69.048103 10.278000 -1.279400 8 8 8 0.999289 0.037642 0.002313
-69.086601 10.462400 -0.002755 8 8 8 0.997782 0.034295 0.057050
-68.860100 10.158400 9.204080 104 104 104 0.997343 0.070544 0.018203
-68.911598 10.253800 10.350900 8 8 8 0.998094 0.056929 0.023813
-68.950699 10.258700 12.513400 9 9 9 0.998098 0.058962 -0.017968
-68.924500 10.254300 14.051200 6 6 6 0.994943 0.096662 0.027278
-68.927597 10.165300 17.194000 11 11 11 0.998043 0.062410 0.003894
-68.935402 9.991460 18.350201 62 62 62 0.998422 0.056070 0.003244
-69.045303 10.890800 21.607300 4 4 4 0.998621 0.050952 0.012649
-69.051300 10.537400 22.071600 4 4 4 0.999823 0.003429 0.018493
-69.051201 10.268800 24.170799 8 8 8 0.999397 0.034252 -0.005712
-69.056602 10.093200 26.694000 8 8 8 0.999576 0.025723 0.013676
-69.059097 10.004800 28.430599 6 6 6 0.999453 0.029948 -0.014057
-69.339203 10.308100 31.402800 14 14 14 0.984771 -0.088191 0.149825
-69.440804 10.769100 33.058102 9 9 9 0.752234 0.082598 -0.653699
-69.081001 10.979800 34.456799 40 40 40 0.926921 0.275215 0.255097
-69.095299 11.159800 36.296501 40 40 40 0.967967 0.250358 -0.018975
-69.107300 11.160800 37.993099 39 39 39 0.972909 0.231145 -0.004431
-68.958298 11.328500 9.053190 13 13 13 0.997733 0.067288 0.001403
-69.044601 12.144400 10.233200 5 5 5 0.996104 0.084242 0.026077
-69.051102 11.518000 12.711800 8 8 8 0.995605 0.085551 -0.038092
-69.477203 12.760400 15.402400 10 10 10 0.954184 0.286410 -0.086612
-69.054703 11.696300 17.650999 5 5 5 0.997966 0.063727 0.001697
-69.061302 11.788100 18.289801 7 7 7 0.997062 0.072436 0.024901
-69.069000 11.517400 21.867399 7 7 7 0.998760 0.047822 0.013854
-69.051003 11.514400 22.054899 6 6 6 0.998527 0.044139 0.031543
-69.122597 11.437700 24.051201 5 5 5 0.997922 0.064416 -0.001577
-69.092796 11.519400 26.103300 4 4 4 0.997681 0.061875 0.028356
-69.137001 11.525600 28.242100 6 6 6 0.997925 0.057355 -0.029272
-69.451202 11.576500 31.397600 3 3 3 0.926718 0.074000 0.368399
-69.384903 11.387800 33.121101 21 21 21 0.831390 0.145491 -0.536305
-69.144302 11.436100 34.395100 31 31 31 0.943504 0.158752 0.290856
-69.108498 11.429300 36.024799 40 40 40 0.995308 0.096761 0.000105
-69.134598 11.520100 38.039299 40 40 40 0.998150 0.059742 0.011247
-69.252403 14.618600 12.198700 7 7 7 0.996495 0.079600 0.025726
-69.298103 15.264400 17.850000 5 5 5 0.995656 0.091998 -0.014319
-69.294403 15.263500 18.038700 4 4 4 0.996098 0.086798 0.015975
-69.295998 14.897300 21.661699 6 6 6 0.997580 0.069294 -0.005650
-69.294701 15.171000 22.189301 4 4 4 0.996564 0.078401 0.026717
-69.295197 14.530900 24.883400 6 6 6 0.997812 0.064883 -0.012704
-69.301300 14.531500 26.192400 6 6 6 0.996911 0.072104 0.031151
-69.300903 13.532500 28.732401 6 6 6 0.995036 0.099230 -0.007519
-69.300598 14.528900 30.733601 20 20 20 0.997943 0.063124 -0.011189
-69.525002 13.665000 33.148300 21 21 21 0.827231 0.056650 -0.558998
-69.301598 13.439200 34.389400 27 27 27 0.956153 0.037709 0.290431
-69.294701 14.252800 36.333302 36 36 36 0.999157 0.027047 -0.030883
-69.302002 13.980900 38.201199 34 34 34 0.997843 0.065643 0.000519
-69.304901 15.446400 17.809401 5 5 5 0.995631 0.092715 -0.011083
-69.296799 15.537500 18.170799 5 5 5 0.996740 0.078695 0.017802
-69.297600 15.443100 21.359400 5 5 5 0.997444 0.070588 0.011058
-69.331902 15.359700 22.066500 4 4 4 0.995277 0.091175 0.033321
-69.306099 15.352500 25.326799 6 6 6 0.997956 0.050217 0.039521
-69.333900 15.358100 26.446199 16 16 16 0.996608 0.065367 0.049987
-69.403000 15.463600 27.995899 7 7 7 0.999331 0.036193 -0.005175
-69.352501 15.360300 30.596001 26 26 26 0.997741 0.066657 0.008400
-69.048103 16.938299 33.710800 13 13 13 0.920650 0.170913 0.350988
-69.380501 15.364300 34.493599 32 32 32 0.956969 0.075443 0.280212
-69.365402 15.360100 36.043201 38 38 38 0.996136 0.066180 -0.057739
-69.372299 15.360500 38.432999 42 42 42 0.989096 0.068243 0.130507
-69.368599 17.489599 15.264700 50 50 50 0.998279 0.058084 0.008095
-69.431999 17.318800 21.936001 7 7 7 0.985697 0.059715 -0.157595
-69.427498 17.317600 22.035400 7 7 7 0.984871 0.067056 -0.159787
-69.473000 17.511700 24.904600 7 7 7 0.997585 0.067391 0.016798
-69.484596 17.511999 30.601101 25 25 25 0.997164 0.054096 0.052317
-69.068497 17.313200 33.546799 14 14 14 0.949287 0.078123 0.304551
-69.522400 17.334900 34.444000 31 31 31 0.930659 0.297512 0.212978
-69.495399 17.511600 36.302200 38 38 38 0.998387 0.056026 0.009201
-69.540298 17.337400 38.186600 28 28 28 0.994164 0.106550 0.016895
-67.106201 -15.398000 3.979670 9 9 9 -0.032939 0.999334 -0.015699
-67.099403 -15.396500 4.241900 10 10 10 -0.028134 0.999012 -0.034395
-67.331596 4.118420 -2.279820 23 23 23 0.960661 0.261559 0.093366
-63.672699 -18.458200 14.097600 31 31 31 0.236699 -0.844238 -0.480871
-63.755299 -15.472300 -0.790026 48 48 48 -0.105654 0.993962 0.029610
-63.746498 -15.981100 1.643380 27 27 27 0.998622 0.052482 -0.000146
-64.145302 -15.228900 3.933400 15 15 15 0.460196 0.884093 0.081239
-65.067101 -15.272200 4.116080 16 16 16 0.137032 0.986973 0.084295
-63.795399 -15.995000 6.456610 29 29 29 0.999384 0.034088 0.008297
-63.805401 -15.741400 8.054410 77 77 77 0.998386 0.056669 0.003799
-60.076099 -15.461200 -0.464370 14 14 14 0.016927 0.993266 -0.114616
-60.125801 -15.474300 0.159457 14 14 14 -0.039583 0.998031 -0.048649
-60.304901 -15.521500 3.132370 7 7 7 -0.062749 0.997957 0.012033
-60.437401 -15.556000 4.479470 2 2 2 -0.072685 0.997268 0.013150
-60.837002 -15.661300 10.920600 3 3 3 -0.088859 0.996043 0.001802
-59.690800 -15.528200 12.203200 14 14 14 -0.011401 0.999783 0.017420
-60.370800 -14.088100 0.443595 88 88 88 0.760593 0.625362 0.174415
-59.199100 -15.395600 -0.650090 15 15 15 -0.071528 0.997300 0.016646
-59.307800 -15.424300 0.503965 12 12 12 -0.072736 0.997232 0.015420
-59.474701 -15.468600 2.742970 15 15 15 -0.069470 0.997528 0.010604
-59.540001 -15.486000 4.221620 17 17 17 -0.069170 0.997551 0.010385
-58.805500 -15.449500 6.051750 16 16 16 -0.074338 0.997205 0.007515
-58.864399 -15.466100 8.850870 14 14 14 0.016983 0.999645 -0.020544
-59.367298 -15.520500 10.564000 7 7 7 -0.077514 0.996990 0.001356
-59.330200 -15.511300 12.071300 5 5 5 -0.010870 0.999899 0.009138
-57.634399 10.141000 -2.029300 82 82 82 0.708236 0.090926 -0.700096
-58.330799 9.734150 -1.557870 43 43 43 0.173340 0.277206 -0.945045
-58.059799 10.287200 7.906300 8 8 8 -0.011408 -0.886381 0.462816
-58.241199 10.168200 11.317900 13 13 13 -0.067899 -0.330962 -0.941198
-58.013802 11.714200 9.562240 89 89 89 0.187526 0.677442 -0.711271
-58.045200 12.024700 10.960200 83 83 83 0.847793 -0.505165 -0.161418
-56.482899 -23.476200 1.018150 60 60 60 0.997762 0.066238 0.009170
-56.544201 -22.757799 2.150950 64 64 64 0.998186 0.059458 0.009424
-56.547100 -23.007000 4.208460 16 16 16 0.997918 0.063369 0.011983
-56.546600 -22.507299 0.946110 60 60 60 0.998033 0.062090 0.008650
-56.558601 -22.512501 2.247780 63 63 63 0.997941 0.063561 0.008642
-56.555099 -22.678301 4.052410 20 20 20 0.998510 0.054374 0.004562
-56.682201 -20.282101 -0.709809 62 62 62 0.998132 0.061089 0.000158
-56.677502 -20.359800 -0.008050 61 61 61 0.998331 0.057749 0.000872
-57.439301 -20.475599 3.173090 61 61 61 0.362793 -0.920980 -0.142048
-57.444500 -20.556499 4.034570 59 59 59 0.070777 0.945055 0.319157
-56.820000 -18.027901 -0.549257 63 63 63 0.998219 0.059452 0.004988
-56.823700 -18.029200 0.050095 65 65 65 0.998254 0.059064 0.000315
-56.826599 -18.030800 1.996990 63 63 63 0.997608 0.068132 0.011648
-56.850498 -18.039101 4.026930 57 57 57 0.998048 0.062094 0.006604
-56.882301 -17.735600 6.286120 64 64 64 0.997768 0.066472 0.006334
-56.880501 -17.811300 8.053110 62 62 62 0.997791 0.066414 0.001149
-56.911098 -17.746099 10.567800 64 64 64 0.998484 0.054793 0.005330
-56.913300 -17.747299 12.040800 67 67 67 0.998435 0.055741 0.004550
-57.164001 -15.253100 -0.613918 16 16 16 0.681612 0.568417 0.460768
-57.295898 -15.289000 1.469830 16 16 16 0.586312 0.809664 -0.026141
-57.329899 -15.298300 1.994990 15 15 15 0.549061 0.835468 0.022922
-57.469501 -15.336300 4.019660 23 23 23 0.330389 0.943257 0.033297
-57.543499 -15.356800 6.438580 27 27 27 0.385456 0.922714 -0.004855
-57.303501 -15.368700 9.235850 16 16 16 0.668230 0.743189 0.033751
-57.331699 -15.376600 10.007800 15 15 15 0.633004 0.773245 -0.037401
-57.405899 -15.397100 12.027500 17 17 17 0.870032 0.490061 0.053697
-56.210400 8.153070 -1.703440 12 12 12 0.080865 -0.157390 0.984220
-57.508400 10.040200 11.327700 8 8 8 -0.065291 -0.439537 -0.895848
-56.940800 12.617500 11.417500 17 17 17 0.796034 -0.185373 -0.576166
-57.041199 14.154900 11.369500 16 16 16 0.684934 -0.121436 -0.718414
-56.757599 14.388100 12.397600 13 13 13 0.001315 0.563897 -0.825844
-55.316898 4.989950 -2.126980 255 255 255 0.428843 0.329015 -0.841334
-55.352901 4.855460 -1.956570 255 255 255 0.405179 0.274399 -0.872087
-55.297298 5.408690 -2.297340 255 255 255 0.465980 0.401305 -0.788553
-55.347198 5.625660 -2.000930 255 255 255 0.444256 0.355577 -0.822315
-54.149399 10.017200 7.352220 108 108 108 0.998312 0.057688 0.006676
-54.161301 10.018700 9.124700 80 80 80 0.998314 0.057556 0.007552
-54.172001 10.019900 11.197000 83 83 83 0.998911 -0.042960 -0.018218
-55.091099 13.234600 -0.383186 45 45 45 0.712713 -0.675054 0.190637
-55.097900 13.310500 -0.402944 41 41 41 0.711747 -0.667187 0.219722
-54.878700 14.277200 12.664900 5 5 5 0.227583 0.444721 -0.866273
-51.636002 5.771840 -0.103260 255 255 255 0.446985 -0.578533 -0.682278
-51.642399 5.708280 0.241184 70 70 70 0.406314 -0.687584 -0.601778
-53.360901 10.704800 11.353800 8 8 8 0.520419 -0.845765 -0.117670
-53.231800 13.698500 25.792801 12 12 12 -0.240394 -0.970597 0.012304
-53.208099 13.692200 26.034401 13 13 13 -0.240371 -0.970623 0.010661
-52.064701 16.167200 -0.063811 255 255 255 0.047393 -0.183542 0.981869
-52.066002 16.167601 0.002993 255 255 255 0.047395 -0.195434 0.979571
-51.529598 6.023510 -0.231877 255 255 255 0.447573 -0.584484 -0.676800
-51.534500 6.024050 0.028929 255 255 255 0.471613 -0.618405 -0.628615
-50.546200 8.371150 -2.166820 20 20 20 0.948576 -0.300436 0.099712
-50.590000 8.442630 -1.994810 7 7 7 0.949211 -0.305973 0.073342
-50.880501 10.740800 7.824440 9 9 9 0.136765 -0.958757 0.249159
-50.424301 11.240100 8.690210 13 13 13 0.191502 -0.855783 0.480586
-50.299900 12.151500 -1.213510 100 100 100 0.027311 -0.272716 0.961707
-49.682201 11.737000 0.018841 42 42 42 0.313352 0.411297 -0.855947
-51.333698 15.803700 -0.030803 49 49 49 0.028939 -0.239534 0.970457
-48.537201 -19.183201 1.634930 107 107 107 0.772366 -0.627253 -0.100023
-48.544899 -19.186600 2.686590 112 112 112 0.774163 -0.613971 0.153981
-48.553501 -19.190399 4.004690 113 113 113 0.850881 -0.467251 0.240164
-49.339802 -17.939600 1.822950 35 35 35 0.553999 -0.611265 -0.565190
-47.966499 -17.440300 2.029130 32 32 32 0.611191 -0.576762 -0.542025
-47.613499 -15.040500 4.555230 27 27 27 -0.068257 0.996586 -0.046454
-47.558701 -15.433600 32.659401 1 1 1 -0.077990 0.996889 0.011359
-47.971199 -15.510300 51.184399 9 9 9 -0.058228 0.998177 0.015898
-47.671902 -11.061700 -2.185250 8 8 8 0.317623 -0.689589 -0.650832
-47.656200 -11.058300 -1.999740 9 9 9 0.262255 -0.604738 -0.752007
-49.188000 11.230100 -1.538530 64 64 64 0.377044 -0.125077 0.917711
-49.465900 10.833200 7.653430 11 11 11 -0.046497 -0.973701 0.223037
-49.459301 10.831500 8.043300 9 9 9 -0.038382 -0.972152 0.231188
-45.671101 -28.542601 -0.144257 8 8 8 0.869741 -0.490623 0.053292
-45.674400 -28.544701 -0.008892 6 6 6 0.872366 -0.486213 0.050734
-45.708302 -28.485800 2.546390 9 9 9 0.909194 -0.413305 0.050448
-47.152500 -18.978800 4.292630 2 2 2 0.736270 -0.305688 -0.603707
-46.400398 -14.911700 -0.347995 44 44 44 0.372382 0.924565 -0.080696
-46.420898 -14.918600 0.019527 43 43 43 0.269394 0.962631 -0.027710
-46.342098 -14.958800 3.593780 42 42 42 0.327083 0.943821 0.047105
-47.470798 -16.521400 4.046180 61 61 61 0.463382 -0.497043 0.733638
-47.512699 -15.208200 7.198840 3 3 3 -0.155814 0.986522 0.049961
-45.859200 -14.998400 8.279940 16 16 16 -0.094921 0.995338 0.017104
-46.191101 -14.912800 11.267500 29 29 29 -0.042875 0.999006 0.012204
-45.900101 -15.013200 12.025700 92 92 92 -0.059640 0.998113 0.014584
-45.878101 -15.132500 14.078200 22 22 22 -0.071540 0.997030 0.028524
-45.920799 -15.083900 16.137300 13 13 13 -0.047002 0.998866 0.007525
-45.940601 -15.091700 18.544399 68 68 68 -0.045034 0.998971 0.005380
-45.953499 -15.291900 21.691700 10 10 10 -0.108814 0.993966 0.013839
-45.978802 -15.429200 28.303900 4 4 4 -0.119809 0.992793 0.002685
-46.387001 -15.119300 31.889900 3 3 3 -0.032366 0.999404 0.012030
-47.509102 -15.417600 32.712700 2 2 2 -0.075961 0.997050 0.011030
-47.450401 -15.477200 50.731602 22 22 22 -0.060136 0.998070 0.015459
-47.442402 -11.070200 -2.224440 11 11 11 0.344747 -0.756828 -0.555303
-47.486301 -11.080500 -1.980900 10 10 10 0.275183 -0.603788 -0.748141
-45.586800 -9.260380 0.476102 24 24 24 0.248871 -0.758814 0.601884
-45.606098 6.030240 -2.452630 9 9 9 -0.085112 -0.293058 0.952299
-45.596100 6.086860 -2.001940 7 7 7 0.119013 0.189576 -0.974627
-46.448101 10.416400 7.255680 11 11 11 0.626493 -0.777815 0.050109
-46.195499 10.421600 7.998110 15 15 15 0.794468 -0.587370 0.154329
-46.178001 10.538700 10.002400 90 90 90 0.998525 0.054076 0.004838
-46.216702 11.343700 9.048020 72 72 72 0.997050 0.055638 0.052875
-46.200401 11.338700 11.358400 7 7 7 0.999412 0.033786 -0.005915
-45.072399 -27.230400 -0.663907 9 9 9 0.794311 -0.607334 0.014694
-45.086899 -27.239500 -0.003732 8 8 8 0.791351 -0.610972 0.021847
-45.097301 -27.246599 2.379980 11 11 11 0.812906 -0.579505 0.057942
-45.119598 -26.645800 -0.196332 9 9 9 0.912582 -0.397040 -0.097739
-45.134602 -26.655701 2.176350 9 9 9 0.954654 -0.275621 0.112552
-45.508598 -15.640900 -0.650548 116 116 116 0.819464 0.565907 -0.090708
-45.517399 -15.708500 0.694062 119 119 119 0.955795 0.293276 0.021099
-45.523800 -15.711100 2.025260 128 128 128 0.956200 0.291854 0.022410
-45.543598 -15.784700 4.049400 98 98 98 0.950486 0.305820 -0.055236
-45.447498 -14.924300 6.016770 34 34 34 0.000649 0.999477 0.032335
-44.161301 -15.063000 11.770000 0 0 0 -0.064908 0.994858 0.077748
-44.442001 -15.097200 14.296100 3 3 3 -0.054831 0.996629 0.061034
-45.350601 -15.361800 51.201401 19 19 19 -0.064288 0.997879 0.010191
-44.672600 -15.321000 52.015499 19 19 19 -0.078616 0.996790 0.015135
-45.138000 -11.015400 -2.180030 11 11 11 0.967683 -0.201868 -0.151128
-45.458801 -11.031800 -1.092580 21 21 21 0.334401 0.248603 0.909050
-45.052399 -9.384550 -2.421600 8 8 8 0.798859 0.429350 0.421287
-45.052200 -9.562590 -1.979690 4 4 4 0.763145 0.367086 0.531844
-45.539200 -9.310150 0.493251 25 25 25 0.307957 -0.760405 0.571793
-45.340500 -4.023550 2.732950 1 1 1 0.942165 0.212731 -0.258981
-44.431301 11.029500 -1.485280 5 5 5 -0.018116 -0.978365 -0.206092
-44.431099 10.966500 5.974040 6 6 6 0.072124 -0.992513 0.098575
-45.539700 11.118500 6.210700 13 13 13 0.075081 -0.984392 -0.159170
-45.430698 11.091300 7.997970 13 13 13 0.359337 -0.914146 0.187655
-43.491699 -26.502100 1.065440 3 3 3 -0.197440 0.980210 -0.014318
-41.999001 -24.378599 3.703480 8 8 8 -0.316054 0.650331 -0.690782
-42.747601 -21.747601 3.923050 4 4 4 -0.246309 0.323228 -0.913704
-41.828602 -17.080900 4.326570 2 2 2 0.003330 0.249495 -0.968370
-43.333500 -14.778000 4.484430 31 31 31 -0.077395 0.996947 -0.010302
-43.522099 -14.842700 6.024670 20 20 20 -0.095334 0.992769 0.072940
-42.636101 -14.778800 8.292080 82 82 82 -0.050741 0.998694 0.005970
-42.952900 -14.708800 11.408700 32 32 32 -0.054872 0.998334 0.017832
-42.810501 -14.719100 13.776200 30 30 30 -0.082036 0.996398 -0.021491
-42.648300 -14.966500 14.138300 15 15 15 -0.064975 0.997234 0.036095
-42.661098 -14.972500 17.650600 23 23 23 -0.079938 0.996614 -0.019257
-42.805801 -14.780800 19.950899 28 28 28 -0.055927 0.998081 0.026563
-42.809299 -14.782200 20.018900 29 29 29 -0.055995 0.998166 0.022994
-42.714600 -15.114600 21.991899 16 16 16 -0.093547 0.995451 0.018065
-42.795502 -14.842900 25.751200 34 34 34 -0.052144 0.998389 -0.022356
-42.678001 -14.983200 25.995300 14 14 14 -0.071599 0.997433 0.000398
-42.785099 -14.964300 30.867300 75 75 75 -0.067842 0.997684 0.004926
-42.796398 -15.028900 32.863400 26 26 26 -0.063856 0.997884 0.012266
-42.805199 -15.032700 34.015800 53 53 53 -0.060911 0.998126 0.005845
-43.130001 -15.096900 50.095001 15 15 15 -0.064892 0.993096 0.097719
-42.463501 -15.343800 52.857899 25 25 25 -0.057794 0.992486 0.107850
-42.919201 -14.636800 5.075280 33 33 33 -0.029908 0.999414 0.016660
-42.752399 -14.638100 5.994220 32 32 32 -0.026099 0.998618 -0.045623
-42.891998 -14.687400 9.770570 31 31 31 -0.051002 0.997883 0.040350
-42.906799 -14.692600 10.012700 31 31 31 -0.067366 0.996842 0.042039
-42.089802 -10.831700 -2.129530 14 14 14 -0.037808 0.998862 0.029079
-43.352299 -10.926500 -1.117310 22 22 22 -0.061066 0.998108 0.007199
-42.936100 10.658000 -0.602234 31 31 31 0.165439 -0.986166 0.010294
-42.916901 10.653000 0.009374 33 33 33 0.259237 -0.961215 0.094138
-42.862801 11.094100 5.943810 112 112 112 0.063745 -0.996114 0.060769
-43.517799 11.033000 6.310040 9 9 9 0.060758 -0.991489 0.115143
-43.521500 11.205700 8.010420 12 12 12 0.040582 -0.996436 0.073949
-43.059502 11.201700 11.175900 13 13 13 -0.025715 -0.999493 0.018756
-42.825802 11.199300 12.352600 14 14 14 0.059853 -0.998187 -0.006423
-43.100300 11.151600 15.464300 7 7 7 0.116831 -0.993062 -0.013349
-42.861900 11.147800 16.813801 14 14 14 0.208551 -0.977853 -0.017622
-42.999100 11.124100 18.234301 13 13 13 0.094588 -0.995508 -0.004185
-43.098099 11.090200 21.707001 12 12 12 0.052716 -0.998556 -0.010312
-43.088402 11.087600 22.049101 14 14 14 0.053140 -0.998525 -0.011100
-42.824902 11.075600 24.238100 10 10 10 0.199058 -0.979983 -0.002866
-42.567902 11.066100 26.279400 8 8 8 0.399732 -0.916155 -0.029582
-42.699799 11.041000 28.131300 9 9 9 0.304136 -0.952624 0.002883
-42.632801 11.022500 29.991501 8 8 8 0.385181 -0.922031 -0.038657
-42.916000 10.981400 32.118900 9 9 9 0.218274 -0.975821 -0.011428
-42.852001 10.963500 34.504700 8 8 8 0.345897 -0.936370 0.059714
-42.569599 10.944800 37.199001 6 6 6 0.448308 -0.893805 -0.011514
-42.553398 10.940100 38.236401 6 6 6 0.449975 -0.893041 -0.000082
-41.893299 11.163700 40.025799 26 26 26 0.424564 -0.905357 0.008636
-41.898399 10.996000 42.446999 23 23 23 0.998341 0.057045 0.007822
-41.907700 10.997400 44.086300 23 23 23 0.997258 0.073439 0.009100
-41.929699 11.002100 46.031898 22 22 22 0.998434 0.055663 0.005594
-41.934898 11.002300 48.052399 20 20 20 0.996565 0.082515 0.007071
-41.956001 11.006600 50.059601 19 19 19 0.997050 0.076393 0.007448
-41.963001 11.007300 52.019199 15 15 15 0.229686 -0.973182 0.012700
-41.979900 11.010600 54.071701 15 15 15 0.213416 -0.976912 0.009858
-42.007900 11.016600 56.391800 14 14 14 0.184415 -0.982695 -0.017391
-42.044800 11.192400 59.417301 12 12 12 0.089183 -0.995346 0.036505
-42.045502 11.192300 60.044498 12 12 12 0.092272 -0.994282 0.053749
-41.635399 11.396400 -1.434450 14 14 14 0.687809 -0.720798 -0.085850
-41.672001 11.294900 0.055274 113 113 113 0.680840 -0.729581 0.064563
-41.725300 11.415300 13.300700 73 73 73 0.214612 -0.966453 0.141104
-41.725101 11.529300 13.996100 58 58 58 0.438919 -0.898371 -0.016733
-41.744900 11.363300 16.977699 60 60 60 0.367084 -0.913930 0.173150
-41.796700 12.113800 18.147400 4 4 4 0.947727 -0.319011 0.006803
-41.798599 11.771200 20.488501 47 47 47 0.917626 -0.396957 -0.019673
-41.794300 11.486000 23.406401 47 47 47 0.775114 -0.631423 0.022429
-41.794102 11.428700 24.047199 44 44 44 0.758261 -0.651791 -0.014465
-41.800499 11.318000 26.026400 43 43 43 0.469626 -0.882718 -0.016105
-41.814400 11.320700 27.999901 40 40 40 0.460251 -0.887556 -0.020301
-41.836498 11.380900 30.055000 38 38 38 0.554963 -0.830975 -0.038679
-41.848000 11.327300 32.046501 34 34 34 0.513869 -0.857776 -0.012628
-41.862701 11.330100 34.037601 31 31 31 0.534898 -0.843674 0.045798
-41.875198 11.332200 36.025501 28 28 28 0.534353 -0.844864 -0.025914
-41.889400 11.334600 38.302399 29 29 29 0.577579 -0.816327 0.003606
-41.902599 11.337200 39.997501 25 25 25 0.658838 -0.752023 -0.019866
-41.922901 11.341300 42.078899 23 23 23 0.998000 0.062843 0.006848
-41.938801 11.344400 44.038799 22 22 22 0.997361 0.072045 0.008995
-41.959801 11.404500 46.324402 20 20 20 0.996940 0.077963 0.005708
-41.967300 11.349500 48.369099 18 18 18 0.997237 0.073930 0.007199
-42.027599 11.362300 54.315300 14 14 14 0.026971 -0.999610 0.007291
-40.797298 -26.652599 0.838721 5 5 5 -0.229642 0.696829 -0.679480
-41.370701 -24.082600 3.724840 5 5 5 -0.296043 0.677419 -0.673396
-41.338402 -15.115400 50.972099 15 15 15 -0.061389 0.997106 0.044841
-41.412399 -15.259300 52.751801 9 9 9 -0.065607 0.991754 0.110087
-39.900398 -14.506700 -0.499242 56 56 56 -0.004725 0.988392 0.151852
-39.916302 -14.512800 0.247867 46 46 46 0.172590 0.974636 0.142469
-39.794399 -14.525100 2.121610 53 53 53 0.445420 0.895155 -0.017289
-41.430000 -14.652200 4.535750 34 34 34 -0.059505 0.998027 0.020056
-41.519901 -14.684600 6.003830 36 36 36 -0.056732 0.998252 0.016595
-39.544601 -14.551000 17.986601 37 37 37 -0.078362 0.996923 0.002045
-39.552898 -14.554200 18.241301 36 36 36 -0.074594 0.997207 0.003595
-41.543201 -10.803400 -2.183030 10 10 10 -0.024920 0.999165 0.032385
-41.353001 -10.807700 -2.002760 10 10 10 -0.024378 0.999357 0.026309
-40.919201 9.288660 -1.844590 28 28 28 0.801162 0.598262 -0.014910
-41.519699 10.862000 0.738644 3 3 3 0.332188 -0.929539 -0.160028
-41.397202 11.162300 6.308100 10 10 10 -0.027895 -0.998767 -0.041055
-41.438702 11.115200 10.809700 8 8 8 -0.034784 -0.995923 0.083235
-41.403400 11.272400 12.272700 14 14 14 0.079720 -0.992625 0.091328
-41.481800 11.068000 15.677600 10 10 10 -0.149613 -0.988020 -0.037841
-41.080502 11.295300 12.331700 14 14 14 0.084296 -0.991001 0.103976
-40.882401 11.459400 15.655400 5 5 5 0.142450 -0.989597 -0.020155
-39.555000 11.836500 30.199900 44 44 44 0.051073 -0.998551 -0.016955
-39.575600 11.725100 41.371498 42 42 42 0.181412 -0.983349 0.010687
-41.023998 11.363300 61.149300 11 11 11 0.069487 -0.995581 0.063165
-38.327099 -26.152000 -0.313801 3 3 3 -0.036283 0.991782 -0.122690
-39.155602 -25.021799 0.977933 1 1 1 0.185205 -0.109278 0.976605
-37.892700 -19.277100 1.761130 4 4 4 -0.024344 -0.007349 -0.999677
-39.045300 -14.753700 0.525564 116 116 116 0.374951 0.881766 0.286182
-39.044201 -14.976900 2.628140 137 137 137 0.759809 0.650044 0.011561
-39.045898 -15.092500 4.243640 137 137 137 0.796444 0.570851 -0.199512
-39.356201 -14.758400 6.841140 15 15 15 -0.042303 0.983967 0.173260
-39.376701 -14.766500 8.042390 12 12 12 -0.077478 0.992463 0.094945
-39.373699 -14.711300 10.297200 17 17 17 -0.077981 0.996520 0.029434
-39.376801 -14.714100 13.901000 14 14 14 -0.050706 0.998641 0.012001
-39.393299 -14.775300 14.039400 13 13 13 -0.053944 0.998510 0.008226
-39.371498 -14.713400 16.464899 7 7 7 -0.082756 0.996521 -0.009827
-39.431801 -14.793400 20.938900 16 16 16 -0.086427 0.995888 0.027143
-39.433998 -14.795200 22.343000 10 10 10 -0.074823 0.997005 0.019539
-39.473999 -14.755900 23.999901 21 21 21 -0.048129 0.998835 0.003408
-39.516201 -14.718300 26.368601 85 85 85 -0.039604 0.999122 -0.013677
-39.295502 -14.989400 51.717201 17 17 17 -0.056677 0.997960 0.029380
-39.309601 -15.106900 52.667500 30 30 30 -0.063146 0.993792 0.091601
-39.541000 -14.486000 -0.578556 57 57 57 -0.035685 0.984289 0.172920
-39.374599 -14.480800 0.018119 51 51 51 0.127950 0.958201 0.255891
-39.423698 -14.499600 2.023040 60 60 60 0.744772 0.665692 0.046563
-39.492901 -14.525900 3.993500 57 57 57 0.634837 0.772419 -0.018728
-39.365398 -14.537400 6.028570 114 114 114 -0.041420 0.997718 0.053323
-39.365898 -14.596500 7.993550 26 26 26 -0.030808 0.998842 0.036940
-39.408298 -14.555000 10.252600 112 112 112 -0.078834 0.996885 0.002199
-39.414299 -14.616200 12.080100 64 64 64 -0.068812 0.997423 0.020289
-39.424099 -14.620700 13.991400 107 107 107 -0.053502 0.998543 0.007032
-39.443199 -14.570600 16.002899 102 102 102 -0.061670 0.998044 -0.010217
-39.449200 -14.632100 17.994699 102 102 102 -0.076390 0.997069 0.004343
-39.467201 -14.696600 20.388800 65 65 65 -0.072559 0.997226 0.016608
-39.490501 -14.706400 22.464899 92 92 92 -0.080487 0.996734 0.006566
-37.567699 -14.692900 25.943899 4 4 4 -0.016649 0.999678 -0.019165
-38.996799 -10.770300 -2.062600 13 13 13 -0.030914 0.999447 0.012259
-39.483002 -10.800500 -1.134950 19 19 19 -0.023629 0.999207 0.032048
-37.568901 10.436600 -0.251453 63 63 63 0.118631 -0.855655 -0.503767
-39.404999 10.836700 7.014540 14 14 14 -0.120187 -0.941547 0.314713
-38.168201 11.012800 8.244400 87 87 87 0.268122 -0.960432 0.075367
-39.186600 11.039700 10.833300 9 9 9 0.018444 -0.994509 -0.103014
-38.515999 10.850100 12.005500 15 15 15 0.613308 -0.789654 -0.017311
-39.369900 11.035300 15.605100 3 3 3 0.472508 0.365858 0.801800
-39.228298 11.287300 63.278198 4 4 4 0.134077 -0.990148 -0.040384
-37.569099 11.771500 -2.249130 42 42 42 -0.174075 -0.945561 -0.274978
-37.589199 11.672800 -1.628690 8 8 8 -0.193543 -0.946422 -0.258510
-37.666401 11.957400 -0.007766 255 255 255 -0.232835 -0.952650 0.195565
-38.181702 11.330100 7.567200 92 92 92 0.267264 -0.959019 -0.094091
-38.169701 11.326300 8.292970 73 73 73 0.222532 -0.974796 0.015866
-38.135101 11.315300 10.181900 65 65 65 0.385971 -0.918133 -0.089766
-38.215099 11.338100 12.200100 75 75 75 0.341236 -0.933447 0.110614
-38.597198 12.032600 14.476100 41 41 41 0.925751 0.377557 0.020887
-39.119202 12.035100 19.653000 9 9 9 -0.012867 -0.999842 -0.012278
-39.045799 12.011600 21.154301 1 1 1 0.013414 -0.999908 -0.002195
-38.875900 11.957700 23.858801 0 0 0 0.038553 -0.999194 -0.011169
-39.297699 11.920100 24.559299 19 19 19 0.088178 -0.996074 -0.007765
-39.047501 11.954400 26.888300 2 2 2 -0.019032 -0.999785 -0.008225
-39.055500 11.899600 28.471300 33 33 33 0.026905 -0.999495 -0.016904
-39.500401 11.820100 30.237801 34 34 34 0.061461 -0.997953 -0.017671
-39.110901 11.858500 32.595200 21 21 21 0.141908 -0.989878 0.001713
-38.981300 11.817100 35.795601 46 46 46 0.137376 -0.990471 -0.009785
-39.013000 11.826000 36.832600 26 26 26 0.164904 -0.986255 -0.010399
-39.058300 11.786200 38.595901 45 45 45 0.161918 -0.986655 -0.017137
-38.954399 11.753000 41.394402 44 44 44 0.153202 -0.988194 -0.001210
-39.032299 11.775900 42.428299 21 21 21 0.186186 -0.982488 -0.007173
-39.073799 11.735600 45.245098 32 32 32 0.191056 -0.981330 -0.022105
-39.071800 11.681300 47.005001 44 44 44 0.180354 -0.983470 -0.016109
-38.330002 11.721300 48.092201 35 35 35 0.141139 -0.989975 -0.005341
-38.799000 11.650000 50.112999 10 10 10 0.173336 -0.984665 -0.019729
-39.310699 11.585800 52.557301 35 35 35 0.180521 -0.983510 0.010955
-38.910801 11.573400 55.937801 9 9 9 0.151928 -0.988169 -0.020954
-39.143101 11.534200 56.155300 19 19 19 0.152429 -0.988021 -0.024083
-39.200298 11.497500 58.381500 6 6 6 0.149852 -0.988101 -0.034659
-38.515800 11.506800 60.476501 45 45 45 0.131582 -0.990623 -0.036778
-39.103802 11.305700 63.401798 1 1 1 0.155417 -0.987445 -0.028243
-36.907501 -26.076799 0.154401 9 9 9 -0.007736 0.995473 -0.094730
-37.033001 -26.097500 2.247560 9 9 9 0.000597 0.997809 0.066159
-37.201599 -18.925501 1.467680 3 3 3 0.263526 0.286233 0.921208
-36.103802 -14.744300 6.931000 8 8 8 -0.040889 0.952107 0.303018
-35.564201 -14.995000 8.025260 2 2 2 0.651059 0.751974 0.103233
-36.159801 -14.717100 14.256000 9 9 9 -0.182246 0.983033 0.020813
-36.217499 -14.746500 24.709801 11 11 11 -0.081567 0.996515 0.017429
-36.278999 -14.725100 34.962502 8 8 8 -0.062344 0.997821 0.021592
-37.401600 -14.862200 50.878101 20 20 20 -0.063095 0.997937 0.011825
-36.164902 -14.795800 52.013302 22 22 22 -0.061544 0.998082 0.006738
-37.470901 -14.372200 -0.605609 13 13 13 -0.060294 0.998176 0.002985
-37.483700 -14.377300 -0.000322 2 2 2 -0.061895 0.997932 0.017325
-37.434700 -14.415200 4.512660 38 38 38 -0.068956 0.997618 0.001622
-37.321899 -14.426900 5.997440 45 45 45 -0.114187 0.992790 0.036452
-36.121300 -14.540600 8.037680 12 12 12 -0.018630 0.997735 0.064640
-36.126202 -14.489800 10.869800 24 24 24 -0.050940 0.998423 0.023610
-36.110699 -14.484200 12.139600 7 7 7 0.027888 0.998608 0.044780
-36.160500 -14.664500 14.182400 9 9 9 -0.148906 0.988752 0.014026
-36.188099 -14.463200 16.023899 51 51 51 -0.052603 0.997606 -0.044887
-37.238499 -14.615800 18.775000 2 2 2 -0.079911 0.996796 -0.003551
-36.561401 -14.406500 21.558800 23 23 23 0.026236 0.999522 -0.016331
-37.417999 -14.688100 22.106899 1 1 1 -0.054825 0.997059 0.053544
-37.295700 -14.698100 25.741400 3 3 3 -0.018086 0.999591 -0.022167
-36.262501 -14.553000 26.017099 87 87 87 -0.004567 0.999969 0.006437
-36.250198 -14.603700 28.291100 14 14 14 -0.026943 0.999619 0.005985
-36.289799 -14.566500 30.048800 80 80 80 -0.027682 0.999138 -0.030933
-36.317699 -14.635200 35.006500 64 64 64 -0.033694 0.999120 0.024968
-36.308998 -14.686200 37.321701 17 17 17 -0.046970 0.998691 0.020269
-37.509800 -10.715800 -2.104400 10 10 10 -0.032726 0.999240 0.021165
-37.508900 -10.715500 -2.007260 11 11 11 -0.033374 0.999158 0.023871
-37.085300 -10.697900 -2.057800 12 12 12 -0.021594 0.999234 0.032639
-37.111099 -10.705500 -1.767260 14 14 14 -0.024269 0.999160 0.033022
-36.022999 9.231220 -2.446950 0 0 0 0.244749 -0.492438 0.835226
-37.424900 10.043100 -2.411590 5 5 5 0.146048 -0.749486 0.645709
-37.297901 10.361300 -0.394382 52 52 52 0.084220 -0.776825 -0.624059
-35.562801 11.107000 63.852901 6 6 6 -0.028523 -0.998871 -0.037988
-36.703602 11.551800 -2.113300 3 3 3 -0.142318 -0.945431 -0.293096
-36.960400 11.784700 -1.480740 35 35 35 -0.247909 -0.849351 -0.465987
-37.072102 11.410200 8.180940 8 8 8 0.159668 -0.987046 -0.015668
-37.332901 11.383800 11.120500 9 9 9 0.283023 -0.957560 0.054553
-37.534100 11.498500 12.299800 17 17 17 0.379203 -0.922362 0.073852
-37.042801 12.269300 14.509700 5 5 5 0.461968 -0.791084 0.400963
-36.205799 11.939300 18.730801 13 13 13 -0.083136 -0.995080 -0.053888
-36.968201 12.136400 21.748301 5 5 5 0.001876 -0.999987 -0.004637
-36.832500 12.037500 24.714300 19 19 19 -0.001310 -0.999986 0.005119
-36.802700 11.665300 34.844700 3 3 3 -0.143681 -0.989323 0.024419
-35.347099 -25.177601 0.403256 9 9 9 -0.121909 0.840753 0.527515
-34.374599 -20.947800 3.836880 5 5 5 0.918982 0.319837 0.230599
-33.977001 -19.209801 -0.272560 71 71 71 -0.362930 0.931181 -0.034397
-34.386101 -19.497700 0.131333 1 1 1 -0.406891 0.912398 -0.044384
-34.366199 -19.486900 2.019650 1 1 1 -0.141745 0.923544 0.356336
-35.031799 -14.823400 10.964800 4 4 4 0.226912 0.957767 0.176614
-35.106201 -14.968400 25.555201 3 3 3 -0.114864 0.982840 -0.144334
-35.369598 -14.724100 42.437000 3 3 3 -0.054761 0.998376 0.015726
-35.382500 -14.734600 50.651001 27 27 27 -0.059514 0.998154 0.012114
-35.413101 -14.748000 52.040501 23 23 23 -0.060806 0.998135 0.005445
-35.394699 -14.244900 -0.473833 13 13 13 -0.059901 0.998165 0.008865
-35.412102 -14.252100 0.005694 3 3 3 -0.059741 0.998082 0.016215
-35.516499 -14.295800 4.497060 42 42 42 -0.045849 0.998927 -0.006585
-35.537701 -14.304900 6.017880 43 43 43 -0.022732 0.999363 0.027522
-35.296700 -14.416200 10.194300 2 2 2 -0.012463 0.999451 0.030705
-34.420502 -14.416000 15.024200 3 3 3 -0.113296 0.993520 -0.009099
-34.328999 -14.429500 17.850800 3 3 3 -0.088889 0.995907 0.016383
-35.378101 -14.505900 18.820601 2 2 2 -0.001023 0.999198 0.040018
-34.994801 -14.502600 20.931999 1 1 1 -0.034269 0.999211 0.020085
-34.577301 -14.485700 22.006701 2 2 2 -0.102833 0.993741 0.043630
-35.422001 -14.579600 25.689800 3 3 3 -0.080595 0.996745 0.001864
-35.511501 -14.617800 27.834600 5 5 5 -0.062595 0.998012 -0.007303
-35.485199 -14.607000 28.033199 4 4 4 -0.058732 0.998272 0.002093
-35.348202 -14.657900 34.995899 2 2 2 -0.054816 0.998220 0.023489
-35.353500 -14.660900 36.348701 4 4 4 -0.061730 0.997909 0.019140
-34.940102 -14.706800 50.723400 23 23 23 -0.060042 0.998091 0.014454
-35.459301 -10.711900 -2.096280 13 13 13 0.074757 0.996639 0.033497
-35.460499 -10.712300 -2.002950 13 13 13 0.076266 0.996446 0.035768
-33.624001 2.308190 2.527720 0 0 0 0.995129 0.079724 0.057985
-34.723499 2.426470 5.437730 1 1 1 0.944428 0.069654 0.321253
-33.924900 6.498300 -1.368430 138 138 138 0.987614 0.074689 -0.137985
-33.865101 7.016480 3.777290 43 43 43 0.996101 -0.058847 0.065721
-34.186600 6.679870 4.386910 44 44 44 0.994668 0.022048 0.100746
-34.843300 8.883420 -2.445510 2 2 2 0.503006 0.137803 -0.853226
-33.836399 7.321070 3.881300 31 31 31 0.954354 -0.275953 0.114269
-33.812500 7.405500 3.993030 39 39 39 0.899449 -0.372601 0.228384
-34.875401 11.168900 -2.194790 53 53 53 0.100749 -0.994743 0.018312
-34.859402 11.163800 -1.733570 46 46 46 -0.001973 -0.999970 0.007520
-34.800098 11.144000 0.245396 45 45 45 0.337862 -0.935311 0.105079
-35.358898 11.075700 6.995460 16 16 16 0.057244 -0.956636 0.285607
-33.815300 11.103400 16.293900 21 21 21 0.304675 -0.770253 -0.560254
-34.630402 11.272400 19.084200 13 13 13 -0.072153 -0.994682 -0.073500
-33.851299 11.253200 22.563200 15 15 15 -0.009673 -0.999371 -0.034104
-33.890598 11.218200 25.599100 12 12 12 -0.007355 -0.999371 -0.034704
-34.766102 11.215700 30.247200 10 10 10 -0.086192 -0.995944 -0.025811
-35.256699 11.175300 33.467499 8 8 8 -0.120393 -0.992016 -0.037551
-34.564999 11.049800 35.900299 17 17 17 0.034646 -0.999242 -0.017749
-33.695301 11.098300 38.649300 50 50 50 0.034628 -0.999284 -0.015241
-34.505798 10.979200 41.484001 16 16 16 0.049978 -0.998733 -0.005911
-34.557598 10.946700 44.282600 16 16 16 0.080672 -0.996739 -0.001611
-34.702301 10.943500 47.076900 16 16 16 0.058583 -0.998218 -0.011326
-34.599201 10.861600 49.854000 16 16 16 0.063743 -0.997852 -0.015096
-34.552799 10.845400 52.647099 17 17 17 0.048855 -0.998806 0.000134
-34.823502 10.880000 55.426498 16 16 16 -0.029263 -0.999207 0.026983
-35.462502 11.025600 63.872898 15 15 15 -0.060970 -0.997202 -0.043258
-33.652401 11.291900 -2.378270 37 37 37 0.747826 -0.463763 0.475057
-33.658199 11.389700 -2.000810 131 131 131 0.880696 -0.336580 0.333300
-33.659199 11.293200 0.255162 99 99 99 0.719550 -0.532976 -0.445179
-35.054600 11.514600 7.948110 19 19 19 0.025433 -0.999611 0.011410
-35.458199 11.499600 8.111890 9 9 9 0.044695 -0.998767 0.021605
-35.420799 11.486300 10.791800 12 12 12 0.043370 -0.996660 0.069196
-35.404598 11.627700 12.302500 16 16 16 0.038391 -0.995668 0.084689
-35.106701 11.627600 14.496500 12 12 12 0.074221 -0.997157 -0.012991
-33.829498 11.295200 17.425800 14 14 14 -0.026980 -0.980567 -0.194318
-35.030701 11.600700 18.002501 18 18 18 -0.137473 -0.988383 -0.064808
-35.075401 11.565100 20.569000 16 16 16 -0.133825 -0.990977 -0.007417
-35.129398 11.531000 23.499901 15 15 15 -0.130309 -0.991256 -0.020742
-35.061901 11.507100 26.283199 14 14 14 -0.120144 -0.992611 -0.016963
-34.299999 11.426100 61.676201 12 12 12 -0.022283 -0.988570 0.149108
-35.228500 11.982200 63.800900 19 19 19 0.073230 -0.990712 0.114577
-35.354401 12.024600 64.774101 5 5 5 0.057328 -0.991915 0.113213
-33.799400 13.509800 0.954837 135 135 135 0.460743 -0.458614 0.759861
-34.126499 18.798901 -0.818156 7 7 7 0.933738 0.161714 0.319348
-34.125401 18.906900 -0.007666 6 6 6 0.855053 0.105164 0.507765
-32.833199 -25.836201 1.608430 12 12 12 -0.031036 0.999216 0.024585
-32.757500 -25.844101 2.507810 13 13 13 0.054100 0.996329 0.066350
-33.515400 -19.172701 -0.611781 60 60 60 0.523984 -0.697577 0.488700
-32.300800 -18.209400 -1.017610 20 20 20 0.522612 -0.055506 0.850762
-32.371300 -16.008301 -2.506250 32 32 32 0.941265 -0.200004 -0.272063
-32.628601 -15.477800 -0.378137 18 18 18 0.788152 -0.067669 0.611749
-32.535702 -14.885100 0.001965 120 120 120 0.792957 0.460349 0.399122
-32.556000 -14.797500 2.633500 125 125 125 0.591354 0.775498 -0.221141
-32.561100 -14.898200 4.249320 138 138 138 0.920047 0.312102 -0.236869
-32.996498 -14.713300 28.651199 6 6 6 0.004368 0.974020 0.226418
-33.050400 -14.744200 39.365101 4 4 4 -0.099584 0.994240 0.039632
-33.102402 -14.719800 42.919300 5 5 5 -0.086164 0.995592 0.037044
-32.952099 -14.904700 47.035000 7 7 7 -0.071479 0.995821 -0.056838
-32.060799 -13.561400 -2.299390 28 28 28 0.984269 0.174893 0.025037
-33.515701 -14.128300 -0.445990 55 55 55 0.138881 0.933544 0.330465
-33.534801 -14.136500 0.055737 9 9 9 0.072307 0.958948 -0.274209
-33.312901 -14.142600 2.493720 64 64 64 0.376521 0.926307 -0.013679
-33.480999 -14.164500 4.011020 42 42 42 0.017581 0.999741 0.014483
-33.069901 -14.040900 6.000500 45 45 45 -0.043490 0.998446 -0.034856
-33.150600 -14.076800 9.907790 44 44 44 -0.136886 0.989278 0.050905
-33.252399 -14.070200 10.017100 4 4 4 -0.133674 0.989106 0.061642
-33.110298 -14.111400 13.767800 48 48 48 0.043554 0.995911 0.079148
-33.262100 -14.126400 14.441100 41 41 41 0.042182 0.994686 0.093922
-33.326302 -14.155200 17.176800 4 4 4 -0.018333 0.994634 0.101819
-33.232498 -14.166000 18.271900 39 39 39 -0.087013 0.995469 -0.038333
-33.331699 -14.210300 21.710199 20 20 20 -0.061947 0.997077 -0.044729
-33.133701 -14.224800 23.983000 37 37 37 0.085903 0.995894 0.028553
-33.278801 -14.238700 24.254499 38 38 38 0.067226 0.997170 0.033644
-33.351299 -14.271600 27.183100 34 34 34 -0.061802 0.993874 0.091629
-33.365200 -14.278100 28.131399 26 26 26 -0.164717 0.976895 0.136179
-33.053699 -14.394600 31.931499 68 68 68 -0.034397 0.999006 -0.028336
-33.055000 -14.395200 32.013699 66 66 66 -0.036005 0.998949 -0.028368
-33.079300 -14.458600 36.375999 12 12 12 -0.060765 0.998069 0.012888
-33.079102 -14.707200 39.253399 5 5 5 -0.087018 0.995334 0.041700
-31.585899 -14.670800 43.561199 7 7 7 -0.092782 0.995046 0.035694
-33.091000 -14.567200 46.181400 6 6 6 -0.032372 0.999455 0.006497
-32.409801 -14.563800 51.974701 18 18 18 -0.062311 0.997993 0.011240
