ply
format ascii 1.0
element vertex 710
property float x
property float y
property float z
property uchar red
property uchar green
property uchar blue
property float nx
property float ny
property float nz
end_header
-39.644199 -12.121800 4.551530 25 25 25 -0.059901 0.992811 -0.103622
-39.517300 -12.084300 7.828650 14 14 14 -0.047282 0.997589 -0.050792
-39.677200 -13.235000 10.448900 10 10 10 -0.040917 0.998341 -0.040499
-39.479198 -13.223700 10.524800 11 11 11 -0.040732 0.998455 -0.037783
-39.698601 -13.187400 12.527700 12 12 12 -0.043280 0.999056 -0.003708
-39.241100 -10.821700 0.498478 73 73 73 -0.230418 0.847536 -0.478111
-39.238300 -10.926100 0.524382 79 79 79 0.367249 -0.893058 0.259954
-39.659901 7.097920 -2.855910 6 6 6 0.022432 -0.095247 0.995201
-38.500702 8.248240 -2.418220 20 20 20 0.075310 -0.379397 0.922164
-38.691799 11.928800 -2.433050 98 98 98 0.866751 0.376187 0.327454
-37.991402 11.294500 -0.344019 101 101 101 -0.062330 -0.711764 -0.699648
-39.310501 12.499400 -1.997800 8 8 8 0.953176 0.134814 0.270705
-39.632401 12.436600 -1.294090 107 107 107 0.899387 -0.323293 0.294253
-39.223099 13.565800 1.336670 116 116 116 0.173457 -0.943122 -0.283610
-39.318802 13.762300 4.511440 5 5 5 0.979204 0.197299 0.047261
-39.261002 13.687700 4.781910 7 7 7 0.985908 0.088348 0.142058
-39.333900 13.765900 8.536770 10 10 10 0.993792 0.091368 -0.063470
-39.421001 13.850200 11.658400 9 9 9 0.998426 0.055370 -0.008888
-39.418301 13.904700 12.788700 7 7 7 0.998584 0.052214 -0.010184
-39.472599 13.865900 16.714199 6 6 6 0.997519 0.013053 0.069181
-39.514000 13.991300 20.492201 14 14 14 0.997511 0.061401 0.034656
-39.501801 13.930300 20.559799 11 11 11 0.996838 0.066964 0.042786
-39.614601 14.025600 22.612000 9 9 9 0.997999 0.056958 0.027445
-39.590199 14.015800 24.538401 11 11 11 0.995710 0.092401 -0.004905
-39.626701 13.970700 26.742701 14 14 14 0.989664 0.139460 0.033411
-39.655800 13.979800 28.576500 14 14 14 0.994424 0.105009 -0.009728
-39.681702 13.652200 32.839699 4 4 4 0.860879 -0.508662 0.012276
-39.623001 13.574400 34.790699 12 12 12 0.511115 -0.859235 0.021813
-39.678902 13.592500 36.563000 11 11 11 0.586157 -0.809481 0.034073
-39.403000 13.718600 38.749901 46 46 46 0.952138 -0.206874 -0.225025
-39.222801 15.300000 -1.791150 21 21 21 0.997304 -0.058290 0.044572
-39.216499 14.284400 -1.337050 1 1 1 0.992895 -0.118937 -0.003562
-39.288502 14.085700 5.027470 7 7 7 0.976250 0.191664 0.101002
-39.471100 15.967000 7.988780 9 9 9 0.997909 0.063107 -0.013992
-39.467400 15.964800 9.660510 6 6 6 0.962192 -0.007197 0.272276
-39.466499 14.202800 12.019200 9 9 9 0.998930 0.024823 -0.039018
-39.466202 14.764300 13.320500 7 7 7 0.998961 0.040696 0.020520
-39.514801 15.237600 16.498301 19 19 19 0.987842 0.155121 -0.010287
-39.476799 14.148200 16.675699 7 7 7 0.997167 0.001480 0.075205
-39.552700 14.117600 20.375700 3 3 3 0.999187 0.039301 0.009000
-39.568100 14.234500 21.288500 5 5 5 0.998187 0.043331 0.041774
-39.609200 14.080500 22.535801 6 6 6 0.997397 0.062488 0.035986
-39.634102 14.088100 24.775600 5 5 5 0.999272 0.037992 0.003378
-39.713600 14.114400 28.069300 9 9 9 0.999107 0.037596 -0.019273
-39.688499 14.104800 29.053200 5 5 5 0.998315 0.057613 0.006907
-39.674801 14.211000 30.537800 28 28 28 0.899389 -0.333519 -0.282603
-39.702099 14.275900 32.621300 39 39 39 0.646128 -0.259641 -0.717708
-39.371601 14.267200 35.285702 44 44 44 0.976753 -0.213557 0.018607
-39.402100 14.221400 36.786701 42 42 42 0.972287 -0.233506 0.011568
-39.418800 14.114100 38.522900 42 42 42 0.941193 -0.323837 -0.096361
-39.471401 16.143000 8.909040 6 6 6 0.998560 0.040403 0.035291
-39.694302 16.173599 10.554900 4 4 4 0.983900 -0.156941 0.085502
-39.531399 16.165701 13.037800 7 7 7 0.998473 0.054514 0.008943
-39.568600 16.179199 16.475700 18 18 18 0.969727 0.034351 -0.241764
-39.551899 16.172400 16.528799 18 18 18 0.980613 0.026370 -0.194175
-39.651402 16.151199 20.406700 10 10 10 0.998745 0.050090 -0.000454
-39.652901 16.092100 21.008699 5 5 5 0.998671 0.049321 0.014971
-39.691399 16.105801 24.403299 12 12 12 0.999930 0.011286 0.003589
-39.690601 16.105400 24.545601 5 5 5 0.999877 0.014631 -0.005608
-39.666000 16.268400 32.592602 44 44 44 0.614741 0.044517 -0.787472
-39.598499 17.176500 36.288601 23 23 23 0.973647 -0.085533 -0.211413
-39.679199 16.385099 36.586800 35 35 35 0.987579 -0.157121 -0.000504
-39.570000 18.311501 9.639070 7 7 7 0.886699 0.142788 0.439745
-39.648998 18.289000 11.818800 8 8 8 0.976820 0.115852 -0.180001
-39.621601 18.093000 13.017600 6 6 6 0.998498 0.054631 0.004136
-39.652500 18.346399 16.479000 14 14 14 0.997920 0.022137 0.060545
-39.659100 18.471600 16.537201 9 9 9 0.996738 0.058789 0.055286
-39.710800 18.313200 20.458401 14 14 14 0.997499 0.054406 0.045125
-39.711899 18.313700 20.524200 8 8 8 0.997809 0.049950 0.043393
-39.657398 18.281000 32.576500 35 35 35 0.809019 -0.041272 -0.586332
-39.669201 18.953100 36.214401 24 24 24 0.968429 0.072143 -0.238623
-39.652500 18.217300 36.864899 22 22 22 0.981555 0.058042 0.182155
-39.617401 20.232201 32.688301 10 10 10 0.998841 0.048064 -0.002377
-39.322701 23.314301 16.034100 14 14 14 0.863835 0.208612 0.458551
-39.701000 22.198900 33.314098 29 29 29 0.989017 0.050388 0.138945
-39.518299 25.704399 17.877199 2 2 2 0.930125 -0.167106 -0.327021
-39.658901 38.391602 -3.565870 37 37 37 0.047933 0.129020 0.990483
-39.682598 38.414501 -3.217870 64 64 64 0.047633 0.108348 0.992971
-36.322201 -21.244301 4.824700 31 31 31 0.999391 0.034688 0.003832
-36.466999 -21.271299 7.430590 7 7 7 0.995764 0.013574 0.090939
-36.361198 -19.822800 4.598220 27 27 27 0.999703 0.024343 0.000976
-36.302299 -19.731199 6.640970 35 35 35 0.991652 -0.116905 0.054393
-37.552399 -12.154900 -2.522480 30 30 30 -0.132924 0.954249 0.267842
-37.016602 -12.187600 -1.458090 2 2 2 -0.058330 0.997789 -0.031855
-37.612000 -12.124300 3.531280 8 8 8 -0.042807 0.994524 -0.095344
-37.638802 -12.028500 4.760950 27 27 27 -0.043940 0.996423 -0.072182
-37.707100 -11.999300 7.813700 9 9 9 -0.046351 0.998112 -0.040308
-37.602798 -13.123600 11.108600 11 11 11 -0.043958 0.998537 -0.031492
-37.672199 -13.095100 12.526700 14 14 14 -0.065411 0.997766 0.013600
-36.458801 -10.447600 -2.736260 1 1 1 -0.156355 0.366666 0.917120
-37.235199 -11.538500 0.429593 30 30 30 0.036946 0.956689 -0.288756
-36.575699 -10.781100 0.532854 64 64 64 0.290807 0.803736 -0.519076
-36.324200 -11.912600 8.284960 27 27 27 0.054461 0.998225 -0.024115
-35.947800 -11.889800 8.529010 30 30 30 0.209136 0.977859 0.007373
-37.544498 7.502710 -3.045400 21 21 21 0.099534 -0.308181 0.946107
-37.619999 8.109220 -2.715740 146 146 146 0.023356 -0.268836 0.962903
-37.678398 11.305800 -0.362459 53 53 53 -0.138619 -0.790315 -0.596814
-37.608501 13.697700 1.383500 32 32 32 0.139778 -0.960687 -0.239879
-35.897999 14.107400 -1.763580 161 161 161 0.074243 -0.990354 -0.116994
-35.910599 14.112200 -1.181430 131 131 131 0.039871 -0.994649 -0.095305
-37.536098 18.941601 13.285300 16 16 16 0.065598 0.098474 -0.992975
-35.144199 -13.922000 0.029390 41 41 41 0.923745 -0.379602 -0.050955
-35.593201 -12.067300 -2.463530 32 32 32 0.162853 0.974972 0.151356
-35.613499 -12.124800 -1.458460 3 3 3 0.089234 0.995521 -0.031213
-34.539101 -12.785600 1.722740 31 31 31 0.983495 -0.156115 0.091468
-35.672600 -12.045400 3.588760 12 12 12 0.004443 0.995302 -0.096713
-35.661201 -11.942900 4.518080 29 29 29 0.018903 0.996734 -0.078514
-35.598801 -11.922900 7.019500 11 11 11 0.277961 0.959577 0.044160
-34.670700 -12.294900 8.535700 84 84 84 0.374572 0.927060 0.016003
-35.507801 -12.593000 11.326600 8 8 8 -0.254291 0.967115 0.004920
-34.867298 -12.317000 12.587800 30 30 30 -0.046386 0.998183 -0.038464
-35.070400 -10.625000 -2.692410 1 1 1 0.090748 0.398125 0.912831
-35.228298 -11.256500 -0.164132 152 152 152 0.802494 0.589255 -0.093715
-34.518101 -10.791300 0.558797 28 28 28 0.789845 0.026180 -0.612748
-34.712299 -11.916400 4.334270 33 33 33 0.484867 0.870296 -0.086542
-34.996101 -11.916900 5.005600 30 30 30 0.557148 0.823987 -0.103104
-35.637901 -11.887200 8.143260 31 31 31 0.290208 0.956925 0.008602
-35.609402 -11.877800 8.532670 27 27 27 0.295674 0.955270 -0.005987
-33.776199 -8.586760 -2.198650 37 37 37 0.754082 -0.469807 -0.458957
-34.044201 -8.064640 -1.113090 3 3 3 0.973301 -0.210726 -0.090990
-34.295200 -9.180670 1.929050 41 41 41 0.979821 -0.130028 -0.151803
-34.506699 -6.452150 -2.937750 1 1 1 0.204680 -0.489925 -0.847396
-34.224701 -6.623020 2.487850 33 33 33 0.945833 -0.118508 0.302252
-34.869400 -6.339540 2.923590 45 45 45 0.952894 -0.020981 0.302576
-33.725201 -4.350920 -2.928560 1 1 1 0.139501 -0.275395 -0.951156
-33.845402 2.597160 -2.473680 3 3 3 0.024909 0.064649 0.997597
-35.626400 11.425600 -0.282421 37 37 37 0.141271 -0.492614 -0.858705
-34.022099 13.766400 -3.064430 37 37 37 0.988616 0.093860 0.117593
-34.097500 13.698500 -1.468490 105 105 105 0.987034 0.160507 -0.000650
-34.299400 14.181200 -2.886520 36 36 36 0.992985 -0.004518 -0.118154
-34.328701 14.242900 -1.215170 255 255 255 0.986836 0.098762 0.128062
-31.727301 -29.433901 7.140190 1 1 1 -0.539784 0.717527 -0.440214
-31.758600 -17.522301 7.820500 13 13 13 -0.098790 0.993112 -0.063003
-31.727699 -17.505600 8.529430 11 11 11 -0.130261 0.991396 -0.012919
-31.854401 -17.471701 10.528200 12 12 12 -0.084696 0.996283 -0.015712
-33.024399 -12.414600 4.283490 12 12 12 -0.037039 0.997367 -0.062348
-33.252602 -12.406500 4.967960 20 20 20 0.009672 0.997975 0.062869
-33.246899 -12.357900 8.084680 18 18 18 0.034719 0.992951 -0.113326
-33.595200 -12.297000 11.097000 6 6 6 -0.042793 0.999021 -0.011254
-33.539001 -12.277100 12.521900 14 14 14 -0.042808 0.998971 -0.014955
-32.835300 -10.583700 0.562318 62 62 62 0.068553 -0.082140 0.994260
-33.692001 -8.653930 -2.216500 42 42 42 0.814906 -0.441434 -0.375584
-33.478001 -8.735550 -1.169320 72 72 72 0.692411 -0.684155 -0.229126
-33.590000 -8.765430 0.919379 6 6 6 0.981714 -0.178685 0.065645
-33.085499 -6.315010 -2.917900 1 1 1 -0.011809 0.285411 0.958332
-33.108501 -7.013510 2.344790 47 47 47 0.988626 -0.149976 0.011244
-32.341702 -4.130410 -2.861640 0 0 0 0.013028 0.143881 0.989509
-32.284000 -2.725600 -2.851810 0 0 0 0.041936 0.129648 0.990673
-32.445900 0.651177 -2.370040 6 6 6 0.053771 -0.012935 0.998469
-32.590698 11.454100 0.419775 31 31 31 0.048042 -0.600444 -0.798222
-32.605301 11.552300 0.527953 31 31 31 0.044484 -0.632118 -0.773594
-31.829800 13.963200 -2.093040 24 24 24 -0.090273 -0.992035 -0.087845
-32.870998 14.323400 -0.827332 15 15 15 -0.104981 -0.978410 0.178022
-30.726601 -28.505501 6.482890 3 3 3 -0.421468 0.844872 -0.329477
-31.202499 -28.947100 6.965790 1 1 1 -0.522116 0.697141 -0.491313
-31.650600 -17.515900 7.811350 13 13 13 -0.092103 0.992808 -0.076484
-31.626200 -17.502701 8.521370 11 11 11 -0.158811 0.986794 -0.031868
-31.655001 -17.466400 10.550700 11 11 11 -0.082512 0.996341 -0.022272
-31.103800 -12.409400 -1.894090 3 3 3 -0.068442 0.997445 -0.020494
-31.077299 -12.399000 -1.471940 10 10 10 -0.068820 0.997462 -0.018236
-31.589899 -12.331100 4.177780 5 5 5 -0.052459 0.998592 -0.007828
-31.622900 -12.344000 4.530100 15 15 15 -0.056978 0.998239 -0.016482
-31.698999 -12.284100 8.050500 14 14 14 -0.068632 0.997551 -0.013467
-30.879601 -12.190900 8.533340 31 31 31 -0.068916 0.997154 -0.030578
-31.640100 -12.216400 11.145100 7 7 7 -0.086658 0.995684 -0.033235
-31.480499 -12.155700 12.758200 11 11 11 -0.073281 0.997309 -0.002273
-31.175800 -10.047700 -2.599180 1 1 1 0.240024 0.305394 0.921479
-31.092100 -11.822000 0.580864 42 42 42 0.160161 0.923529 -0.348487
-31.186701 -9.878120 -2.592800 1 1 1 0.206203 0.243704 0.947675
-30.624701 -3.481010 -2.846760 0 0 0 0.006810 0.055933 0.998411
-31.671400 -1.715340 -2.824000 0 0 0 0.047501 0.075851 0.995987
-30.156300 5.555100 -3.025640 1 1 1 0.027303 -0.323573 0.945809
-30.163401 7.380820 -2.989210 27 27 27 -0.131423 -0.423438 0.896342
-31.629400 11.702200 -0.444265 20 20 20 0.031154 -0.440446 -0.897239
-30.277500 11.810000 0.536875 30 30 30 0.347290 -0.866769 -0.357911
-30.098600 11.825600 6.107470 6 6 6 0.501488 -0.815229 0.289674
-31.109301 13.647200 -2.087440 6 6 6 0.278735 0.695964 0.661771
-28.267000 -27.650000 6.122490 5 5 5 0.781576 -0.116292 0.612875
-28.255100 -27.638399 6.526140 5 5 5 0.850117 -0.107405 0.515524
-28.505699 -18.202900 9.749240 3 3 3 0.985674 -0.133537 0.103028
-28.278799 -17.510799 3.682490 50 50 50 0.292984 0.934125 -0.203891
-28.466499 -16.035101 6.303460 69 69 69 0.974387 -0.178275 0.137071
-29.282301 -17.128401 7.706650 5 5 5 -0.001491 0.973706 -0.227803
-29.248100 -17.062099 9.724800 4 4 4 -0.033398 0.995929 0.083730
-28.466900 -17.480000 11.971800 76 76 76 0.860126 -0.456110 -0.228356
-28.057400 -16.988300 13.785900 17 17 17 0.966690 -0.252250 -0.043357
-27.723301 -15.294400 3.356520 21 21 21 0.997762 -0.002613 0.066821
-28.468000 -15.800800 6.231800 56 56 56 0.888298 -0.338064 0.310869
-28.469299 -15.892700 6.517070 47 47 47 0.934559 -0.203032 0.292195
-29.466999 -15.875100 9.495740 18 18 18 0.427440 0.859062 -0.281616
-28.561800 -15.900900 11.521000 69 69 69 0.989326 0.073405 -0.125882
-27.788900 -15.887200 12.524200 65 65 65 0.746544 -0.028425 -0.664729
-29.162500 -12.063000 -2.164280 8 8 8 -0.112979 0.975899 0.186702
-29.198099 -12.035700 -0.308850 23 23 23 -0.020051 0.952713 -0.303209
-27.717199 -13.477600 1.788270 76 76 76 0.988285 -0.092703 0.121238
-29.233000 -11.964600 3.937730 10 10 10 -0.064508 0.996850 -0.046136
-29.260700 -11.933600 5.676650 8 8 8 -0.070115 0.997165 0.027304
-28.567801 -12.114700 6.574220 33 33 33 0.369506 0.929227 -0.001330
-28.525600 -12.055700 9.284990 33 33 33 0.638425 0.769089 -0.030265
-28.760300 -12.029300 11.004700 33 33 33 0.288873 0.957365 -0.002308
-28.789900 -11.999300 12.519900 32 32 32 0.381212 0.916175 0.123694
-28.148800 -10.338500 -2.501910 5 5 5 0.021275 0.409626 0.912005
-28.513201 -11.753500 0.085992 11 11 11 0.638292 0.744557 -0.195495
-28.537300 -11.679900 3.962120 6 6 6 0.726933 0.686446 0.018981
-28.540199 -11.639800 5.696940 3 3 3 0.756326 0.652786 0.042914
-29.326300 -11.918800 7.501560 5 5 5 -0.051817 0.991670 -0.117926
-28.001499 -11.300800 10.300000 4 4 4 0.968553 -0.241494 0.059880
-29.320000 -11.832900 10.652200 5 5 5 -0.036221 0.995633 0.086045
-29.441900 -8.879490 -2.581250 1 1 1 -0.062432 0.190669 0.979667
-29.226000 -7.350830 -2.642150 3 3 3 0.087627 0.074986 0.993327
-29.362301 -3.486280 -2.808790 1 1 1 -0.015090 0.024758 0.999580
-29.531099 -1.563630 -2.752920 0 0 0 -0.010670 0.011342 0.999879
-28.325899 5.697940 -3.001370 0 0 0 -0.031870 -0.265899 0.963474
-29.467199 7.210460 -2.881740 44 44 44 -0.042350 -0.617766 0.785221
-28.472700 11.982600 -3.110840 3 3 3 0.662633 -0.559556 0.497810
-29.582001 12.977100 -2.026730 12 12 12 -0.046438 -0.986180 0.159033
-29.163200 12.446900 0.280690 9 9 9 0.540053 -0.833236 0.118582
-28.738800 12.780600 0.916050 102 102 102 0.708422 -0.688053 0.157228
-28.222601 13.364500 5.936190 18 18 18 0.054854 -0.988547 0.140594
-28.565100 13.570800 7.077890 23 23 23 0.019842 -0.983573 0.179418
-28.129101 14.152100 8.163340 14 14 14 -0.028950 -0.902704 0.429286
-28.895000 14.581700 8.813080 23 23 23 -0.364335 -0.890168 0.273609
-28.467400 14.862800 10.835000 43 43 43 0.966723 -0.064514 -0.247556
-28.883301 16.590099 10.827200 11 11 11 0.060425 0.291388 -0.954695
-27.741699 18.752199 -1.800000 25 25 25 0.206458 -0.071689 -0.975826
-28.646299 18.225599 10.955200 9 9 9 0.328955 0.265531 -0.906246
-27.064301 -27.975599 1.106740 69 69 69 0.999530 0.030574 0.002320
-25.989700 -26.131100 0.182660 72 72 72 0.421719 0.512619 0.747914
-27.050501 -27.821699 0.834946 62 62 62 0.998916 0.044929 0.012142
-27.070999 -27.913300 2.756660 62 62 62 0.999005 0.042644 0.013020
-27.244200 -27.533300 5.358560 57 57 57 0.919018 0.067962 0.388314
-27.217600 -23.943199 0.505423 65 65 65 0.998787 0.047820 0.011753
-27.217199 -24.497299 2.221660 68 68 68 0.998564 0.050164 0.018820
-27.217199 -25.248899 4.223660 60 60 60 0.998664 0.047443 0.020457
-27.223301 -25.837400 5.235580 24 24 24 0.996236 0.068933 0.052554
-27.217400 -23.881399 -0.281292 61 61 61 0.998866 0.047407 0.004359
-27.232401 -23.657499 0.536965 65 65 65 0.998799 0.047462 0.012129
-27.256500 -23.917101 2.774650 68 68 68 0.998676 0.047286 0.020255
-27.294100 -23.892300 5.025210 67 67 67 0.998938 0.043919 0.013950
-27.467899 -18.524099 -0.403121 69 69 69 0.999203 0.039807 0.002972
-27.467100 -18.978399 1.784580 71 71 71 0.998908 0.044664 0.013718
-27.480499 -18.987900 2.585380 71 71 71 0.998886 0.043636 0.017941
-27.531799 -18.973801 5.606110 66 66 66 0.998846 0.045247 0.016105
-27.572701 -18.445999 6.521410 68 68 68 0.962947 0.269687 -0.001250
-27.490900 -17.795000 -0.380969 68 68 68 0.999085 0.040475 0.013808
-27.513700 -17.907600 1.782690 73 73 73 0.999023 0.041387 0.015476
-27.524300 -17.914700 2.529470 71 71 71 0.998918 0.042667 0.018513
-27.565800 -17.893999 4.778230 68 68 68 0.861285 0.506454 0.041149
-27.595900 -17.914301 6.527830 68 68 68 0.843588 0.533033 -0.065082
-27.633200 -17.791201 8.527940 64 64 64 0.597623 0.791293 0.129234
-27.583000 -15.715900 -0.450123 69 69 69 0.998843 0.045720 0.014892
-27.600599 -15.911100 1.030060 72 72 72 0.998874 0.046454 0.009613
-27.627300 -15.882400 3.030370 66 66 66 0.998393 0.051065 0.024589
-27.686501 -15.002200 4.525870 49 49 49 0.997821 0.063319 0.018562
-27.107500 -11.977900 -2.196180 84 84 84 0.648117 0.563889 0.511834
-27.673300 -13.713400 -0.519439 54 54 54 0.998811 0.045896 0.016420
-27.690701 -13.722700 0.955481 73 73 73 0.998022 -0.059572 -0.020082
-27.271601 -10.133500 -2.474280 8 8 8 0.366202 0.411362 0.834672
-27.562300 -11.646600 4.197920 3 3 3 0.845654 -0.532956 0.028754
-27.580099 -11.614500 5.113230 4 4 4 0.789549 -0.609372 0.072656
-27.353600 -11.039300 10.103100 3 3 3 0.825952 -0.560866 0.056858
-27.168501 -11.203800 11.167600 3 3 3 0.703204 -0.709726 -0.042355
-27.551399 -9.379500 -2.524030 6 6 6 0.131448 0.362065 0.922838
-26.677299 -5.649540 -2.746920 0 0 0 0.017402 0.045251 0.998824
-27.665400 7.436890 -2.300420 3 3 3 0.197796 -0.798301 0.568851
-27.571100 8.273520 -1.786060 0 0 0 0.126400 -0.622697 0.772186
-25.991400 11.397300 10.134800 10 10 10 0.827994 -0.485371 0.280787
-27.658501 13.787700 -2.933740 15 15 15 0.881093 -0.458538 -0.115838
-27.703400 13.809400 -1.219500 14 14 14 0.578854 -0.814508 0.038781
-27.673599 13.793800 0.530235 26 26 26 0.595365 -0.764287 0.247800
-26.613701 13.432100 4.211040 13 13 13 -0.077958 -0.996841 0.015163
-27.641600 13.432100 5.684280 19 19 19 0.016748 -0.998449 0.053095
-27.673500 13.619300 7.079180 27 27 27 0.004606 -0.974824 0.222928
-26.138100 13.814200 10.514500 22 22 22 -0.064761 -0.844417 0.531758
-27.259600 13.713100 10.975800 20 20 20 0.116487 -0.507436 -0.853780
-27.651899 14.569300 10.906400 12 12 12 0.795480 0.093477 -0.598726
-27.373800 16.229900 10.939000 19 19 19 -0.121461 0.186095 -0.974995
-27.271400 17.786900 12.522700 25 25 25 0.096384 -0.992186 0.079227
-27.584900 18.596399 -2.112440 20 20 20 0.307599 -0.064588 -0.949322
-26.873400 18.257500 13.172700 27 27 27 -0.044055 -0.951067 0.305829
-25.651199 -26.117701 0.098622 76 76 76 0.370582 0.535222 0.759083
-25.135900 -5.654710 -2.677950 1 1 1 0.001362 0.050470 0.998725
-25.423201 -3.636520 -2.679210 0 0 0 -0.061081 0.007013 0.998108
-25.670099 7.773640 -2.767400 5 5 5 0.465833 -0.421031 0.778288
-25.651501 8.085590 -2.815220 3 3 3 0.780229 -0.259060 0.569325
-24.741699 10.485900 -3.031460 1 1 1 0.365399 0.014243 0.930742
-25.418501 10.955900 9.931370 6 6 6 0.960887 -0.275396 0.029204
-25.595900 13.163800 -2.893000 62 62 62 0.020026 -0.845684 0.533309
-25.654400 13.853100 -1.231220 28 28 28 0.272849 -0.961422 0.034952
-25.647600 13.890100 0.519415 28 28 28 0.027363 -0.979817 -0.198017
-25.711901 13.467300 4.177250 10 10 10 -0.205467 -0.976779 -0.060720
-25.683399 13.492800 5.287870 7 7 7 -0.197987 -0.979911 -0.023983
-24.793900 13.145000 6.633410 26 26 26 0.387400 -0.921804 0.014077
-25.572500 13.515400 10.082800 16 16 16 -0.003033 -0.985833 0.167705
-25.120199 13.275800 10.956600 12 12 12 0.869286 -0.355191 0.343775
-25.317801 14.504600 -1.740490 9 9 9 0.805666 -0.574906 0.142779
-25.293800 14.281200 -1.470840 10 10 10 0.778256 -0.464921 0.422097
-24.762100 14.309700 0.602785 15 15 15 0.072369 -0.974853 0.210772
-24.964399 14.339600 8.330010 20 20 20 0.918541 0.373191 0.130428
-25.071600 14.400000 10.701100 5 5 5 0.716755 0.419776 -0.556821
-25.619699 17.833700 10.597500 24 24 24 0.042719 -0.998849 0.021832
-24.908400 17.900999 12.523300 33 33 33 0.044582 -0.998861 0.016987
-23.723499 17.775400 22.954500 15 15 15 0.068144 -0.997559 0.015252
-23.717400 17.816299 24.668501 39 39 39 0.054356 -0.998295 0.021281
-23.717699 17.998800 32.429001 61 61 61 0.039595 -0.999141 0.012211
-23.721901 17.955601 32.586498 28 28 28 0.078073 -0.996925 0.006663
-23.741600 18.014900 35.289600 52 52 52 0.078215 -0.996874 0.011127
-23.814699 18.068501 38.029999 46 46 46 0.077683 -0.996763 0.020710
-24.007799 18.072100 39.306900 9 9 9 0.079004 -0.996747 0.015939
-24.679300 17.996201 46.488602 24 24 24 0.140099 -0.989477 -0.036174
-23.746300 18.010700 46.543900 21 21 21 0.165831 -0.981733 -0.093278
-25.499800 18.972900 -0.617474 66 66 66 -0.047183 -0.187974 0.981040
-23.761900 18.170000 37.981201 3 3 3 0.016748 -0.999596 0.022946
-23.975000 18.094999 39.777500 23 23 23 0.077279 -0.996952 0.010733
-23.935801 18.111799 40.778301 27 27 27 0.074270 -0.997231 0.003744
-23.925501 18.195999 43.586201 27 27 27 0.044605 -0.998670 0.025849
-24.778999 18.117100 46.430099 7 7 7 0.077772 -0.996905 -0.011475
-23.461500 6.943770 -2.951910 0 0 0 0.052187 -0.221103 0.973853
-22.363400 8.724090 -2.507300 12 12 12 0.324068 -0.237338 -0.915779
-22.596500 9.508830 0.033696 255 255 255 0.165976 -0.976901 -0.134597
-22.062000 8.830580 0.521776 255 255 255 0.303412 -0.621141 -0.722582
-22.482300 11.207500 -2.927490 1 1 1 0.316094 0.328761 -0.889944
-23.631599 13.976000 -0.213286 14 14 14 -0.128728 -0.936374 -0.326548
-23.520399 13.395900 0.987550 30 30 30 -0.033452 -0.859300 -0.510376
-23.650801 13.547800 3.113890 12 12 12 0.267215 -0.963636 -0.001614
-23.471800 13.601700 5.263020 2 2 2 0.102968 -0.994448 0.021674
-23.628799 13.811600 7.127550 30 30 30 0.236499 -0.924922 0.297638
-23.542500 13.521200 11.028600 9 9 9 0.241705 -0.030998 -0.969855
-23.357599 14.374100 0.636677 18 18 18 0.502605 -0.014062 -0.864402
-23.300301 14.416800 8.331440 20 20 20 0.177946 -0.854993 0.487158
-23.622101 14.085300 11.004500 17 17 17 0.197720 -0.003855 -0.980251
-21.733500 16.772200 -1.651410 216 216 216 0.093405 -0.378859 0.920729
-23.472799 17.550900 10.463200 60 60 60 -0.138273 -0.977128 0.161561
-23.488100 17.562000 11.054200 60 60 60 -0.138644 -0.987940 0.068940
-23.518999 17.584299 12.525300 60 60 60 -0.130100 -0.983506 -0.125657
-23.521200 17.629601 14.861600 54 54 54 0.058878 -0.998001 0.022986
-23.516100 17.670799 16.569099 61 61 61 0.074691 -0.996819 0.027804
-23.625799 17.705200 18.757099 57 57 57 0.071136 -0.996993 0.030726
-23.550900 17.741600 20.524700 57 57 57 0.084149 -0.996339 0.015095
-23.541500 17.826099 22.688200 71 71 71 0.031770 -0.999408 0.013225
-23.715401 17.814800 24.540600 42 42 42 0.052030 -0.998378 0.023134
-23.654100 17.861900 26.767099 46 46 46 0.065711 -0.997706 0.016250
-23.666500 17.961901 29.634100 69 69 69 0.024595 -0.999352 0.026281
-23.563801 18.023600 30.668200 5 5 5 0.002163 -0.999581 0.028865
-23.674400 17.965799 32.533298 44 44 44 0.073133 -0.997277 0.009524
-23.687401 18.020399 35.309898 45 45 45 0.076878 -0.996978 0.011153
-23.251400 18.320999 -1.630460 58 58 58 -0.130985 -0.975532 0.176580
-23.238100 18.214300 -0.827009 29 29 29 0.041330 -0.677958 0.733938
-22.945601 18.104700 32.428200 4 4 4 0.007610 -0.999622 -0.026436
-23.122000 18.101101 33.479599 3 3 3 0.017454 -0.997958 0.061445
-23.673599 18.104401 35.220299 9 9 9 0.008043 -0.999624 0.026202
-23.698299 18.169001 37.992298 3 3 3 0.023397 -0.999414 0.024995
-23.606400 18.191299 39.064899 5 5 5 0.021991 -0.999756 0.002311
-23.590000 18.130899 40.910702 50 50 50 0.076854 -0.997042 0.000677
-23.220900 18.267300 43.639599 29 29 29 0.017002 -0.999568 0.023984
-23.711201 18.268400 44.684799 17 17 17 0.014874 -0.999850 -0.008828
-23.640900 18.119101 46.522099 21 21 21 0.097808 -0.993533 -0.057664
-22.263599 18.385300 49.204601 29 29 29 0.056686 -0.998179 0.020602
-22.245199 18.511000 52.015499 8 8 8 -0.003784 -0.999975 -0.006020
-22.026400 18.515900 53.131699 13 13 13 -0.008626 -0.999900 0.011208
-23.071699 18.235300 54.924500 16 16 16 0.130072 -0.991380 -0.015688
-19.789301 -7.099140 -2.379790 10 10 10 0.241778 0.818525 0.521114
-20.969900 1.477170 -1.553180 4 4 4 0.072791 -0.967088 0.243808
-21.092300 5.926410 -2.820840 1 1 1 0.240798 0.418027 -0.875939
-21.559401 8.067470 2.227680 25 25 25 0.005021 -0.992589 0.121420
-20.064400 7.913230 3.010770 23 23 23 0.967477 0.251966 -0.022393
-20.273899 8.805000 -2.850790 30 30 30 -0.173658 -0.153071 0.972837
-20.431101 8.962220 0.284425 28 28 28 0.626731 -0.001359 -0.779235
-21.218901 8.185310 2.028680 24 24 24 -0.113149 -0.986608 0.117478
-21.588301 8.359100 2.675000 13 13 13 -0.073082 -0.901396 0.426783
-21.275200 10.875300 -2.841560 3 3 3 -0.195506 -0.308521 0.930909
-21.230600 11.951100 1.378290 10 10 10 -0.149183 -0.376015 -0.914526
-20.269501 13.152300 -1.522840 76 76 76 0.344994 -0.938602 0.002349
-21.216999 13.131000 0.126018 82 82 82 -0.013461 -0.998835 -0.046350
-21.248600 12.101900 1.384920 18 18 18 -0.120703 -0.486338 -0.865393
-21.471100 13.662300 4.638530 22 22 22 0.054735 -0.996552 0.062350
-21.663799 13.291900 6.579770 28 28 28 0.567193 -0.821081 0.064164
-21.712799 13.394600 11.119100 12 12 12 0.014369 -0.067068 -0.997645
-20.991800 15.825200 -2.305650 10 10 10 0.419218 -0.195721 -0.886538
-20.817699 15.530600 -1.460840 116 116 116 0.234256 0.376460 0.896327
-20.013000 14.387400 0.734140 30 30 30 0.913616 -0.122129 0.387802
-21.530600 14.432500 8.307810 19 19 19 0.026267 -0.879500 0.475173
-20.370600 14.525600 8.591250 11 11 11 0.055240 -0.911724 0.407072
-21.671499 14.842600 11.085800 13 13 13 0.013845 -0.015207 -0.999789
-20.236700 16.488100 -2.363800 45 45 45 0.378513 -0.334565 -0.863014
-20.068300 17.733101 10.374600 28 28 28 0.049700 -0.998732 0.008057
-20.074400 17.738199 10.766600 30 30 30 0.045011 -0.998936 0.010046
-19.941099 17.754900 12.537100 58 58 58 0.052195 -0.998631 0.003527
-21.673201 17.740101 14.910700 48 48 48 0.048598 -0.998816 0.002321
-21.551100 17.774401 16.830700 22 22 22 0.042179 -0.998864 0.022155
-21.695801 17.802000 18.558500 50 50 50 0.055279 -0.997726 0.038550
-21.682199 17.924801 21.268499 6 6 6 0.044398 -0.998655 -0.026757
-21.478100 17.937201 24.121599 42 42 42 0.057719 -0.998302 0.007809
-21.579100 17.974800 25.159500 27 27 27 0.045923 -0.998156 0.039688
-21.640400 18.024700 26.870800 11 11 11 0.053423 -0.998217 -0.026615
-21.622999 18.007999 29.759300 56 56 56 0.049361 -0.997663 0.047254
-21.683100 18.010900 30.821600 23 23 23 0.030219 -0.999459 -0.012971
-21.474800 18.019199 32.822601 6 6 6 0.021307 -0.995727 0.089858
-21.711901 18.287701 -0.965646 32 32 32 0.032209 -0.990197 0.135916
-19.975201 18.091200 25.137100 1 1 1 0.034077 -0.996454 0.076931
-20.788099 18.080601 26.877300 5 5 5 0.039099 -0.998420 -0.040350
-21.451300 18.094601 29.665899 9 9 9 0.056962 -0.997881 -0.031454
-21.700300 18.117800 30.716600 3 3 3 0.047618 -0.994017 0.098300
-21.534901 18.162399 33.534801 10 10 10 0.047554 -0.993683 0.101653
-21.655199 18.168900 35.282001 21 21 21 0.050798 -0.998533 0.018759
-21.670601 18.226500 38.079800 27 27 27 0.032900 -0.999448 0.004559
-21.696199 18.247400 39.138500 19 19 19 0.019351 -0.999375 0.029580
-21.707899 18.255301 41.973999 41 41 41 0.054693 -0.998503 -0.000492
-21.509399 18.272499 43.753700 50 50 50 0.028300 -0.998520 0.046441
-21.705400 18.251200 44.821400 13 13 13 0.045674 -0.997816 -0.047712
-21.695801 18.195101 46.576801 23 23 23 0.041022 -0.985345 0.165564
-21.673000 18.454901 49.232700 21 21 21 0.021583 -0.999423 0.026227
-21.570801 18.412500 52.139400 32 32 32 0.071416 -0.997105 0.026095
-21.683599 18.461201 53.183601 33 33 33 0.043139 -0.998934 0.016420
-21.692699 18.514999 54.865002 53 53 53 0.038395 -0.999088 0.018680
-19.039000 -25.075800 2.482720 0 0 0 -0.088870 0.985539 -0.144272
-19.292700 -25.077801 2.806310 0 0 0 -0.130961 0.990363 -0.045057
-19.326200 -25.057199 4.529820 1 1 1 -0.058292 0.969236 0.239131
-18.598801 -23.868900 3.560080 1 1 1 0.008846 0.132016 -0.991208
-18.636299 -18.275400 4.823550 22 22 22 0.158128 0.372261 0.914558
-19.343399 -16.255301 -0.262180 102 102 102 0.970665 -0.227221 0.078615
-19.358101 -16.227600 0.522874 106 106 106 0.996785 -0.075366 0.027205
-19.405701 -16.227699 2.685720 29 29 29 0.999392 -0.030395 0.017083
-19.429001 -16.123800 4.534670 105 105 105 0.916667 -0.392183 -0.076903
-19.313299 -15.901300 -0.416822 47 47 47 0.928064 -0.371269 0.029255
-19.376301 -15.711800 0.763418 110 110 110 0.995186 -0.091418 0.035327
-19.478300 -15.314900 3.616850 78 78 78 0.983380 0.070812 -0.167180
-19.444300 -15.686800 4.528430 115 115 115 0.856019 -0.514728 0.047824
-18.570000 -14.791800 8.898290 9 9 9 0.089025 -0.177644 -0.980060
-17.889400 -12.428400 2.611380 9 9 9 -0.385782 0.922178 -0.027559
-18.485901 -12.000700 4.862890 52 52 52 -0.039500 0.999049 -0.018477
-19.240900 -12.873900 8.183650 5 5 5 0.666394 -0.743865 -0.050824
-19.270500 -12.893900 8.524630 5 5 5 0.666990 -0.744846 0.018150
-18.775101 -12.736600 12.012600 6 6 6 0.707690 -0.218665 -0.671834
-18.583700 -11.935400 12.526900 8 8 8 0.004400 0.967171 -0.254090
-19.481501 -13.111100 15.857000 17 17 17 0.750337 -0.661046 0.003480
-19.495600 -12.734700 19.208401 10 10 10 -0.583229 0.809881 -0.062737
-18.542801 -12.081600 22.274700 5 5 5 -0.442608 0.894544 -0.062361
-18.252399 -12.057100 22.817900 7 7 7 -0.288791 0.937813 -0.192629
-19.185699 -12.133700 33.371899 17 17 17 -0.336599 0.927867 -0.160513
-18.508101 -11.919600 11.775800 12 12 12 -0.188518 0.978385 0.084994
-18.476500 -11.899900 12.768500 12 12 12 0.019523 0.995816 -0.089271
-18.512699 -11.891700 15.257600 7 7 7 0.588733 -0.776485 -0.224643
-18.528700 -11.838300 16.531099 10 10 10 -0.226462 0.951120 -0.209966
-18.477501 -11.839100 18.775499 11 11 11 -0.416580 0.897433 0.145172
-18.587900 -11.780200 20.519699 3 3 3 -0.138003 0.989506 -0.042816
-18.583900 -11.779200 22.685499 6 6 6 -0.093559 0.986398 -0.135150
-18.489599 -11.720800 24.587999 6 6 6 -0.169133 0.985593 0.000020
-18.737499 -11.650500 27.738600 9 9 9 -0.100282 0.994418 -0.032822
-18.793600 -11.884000 29.865299 19 19 19 -0.236840 0.970778 0.038699
-18.813200 -11.568700 32.778801 4 4 4 -0.039050 0.998244 0.044554
-18.761400 -11.538100 34.816101 6 6 6 -0.134740 0.989245 -0.056912
-18.797300 -11.529400 36.541000 6 6 6 -0.061177 0.997442 -0.036974
-18.945999 -11.458800 39.650299 4 4 4 -0.073605 0.997268 0.006165
-18.755699 -11.411000 42.182800 2 2 2 -0.174077 0.984698 -0.008195
-19.018700 -11.375900 43.449402 2 2 2 -0.056634 0.997599 0.039858
-18.790899 -11.337800 46.237999 3 3 3 -0.061873 0.997211 -0.041742
-18.899000 -11.339700 46.518101 2 2 2 -0.064415 0.996671 -0.049979
-19.414700 -11.288500 50.877602 37 37 37 -0.073185 0.997318 -0.001276
-19.278099 -11.406300 54.476101 86 86 86 -0.069872 0.996916 0.035722
-18.878000 -11.265000 54.585999 30 30 30 -0.033258 0.999379 0.011644
-18.217100 -8.352300 -2.280570 13 13 13 -0.200985 0.961993 -0.184866
-18.238701 -8.225030 -0.967108 11 11 11 -0.086914 0.994727 0.054447
-17.738600 -7.652080 -1.571470 6 6 6 0.905478 -0.349478 0.240780
-18.328199 -7.879450 -1.426110 22 22 22 0.552214 0.831038 -0.066603
-17.940201 -7.342670 2.515590 2 2 2 -0.356930 0.931931 0.064077
-18.362301 -7.462850 4.749660 1 1 1 -0.366025 0.929858 -0.037276
-17.718800 -1.295430 -2.472120 3 3 3 0.156823 0.471231 0.867956
-17.772100 3.948580 -2.632460 1 1 1 0.300813 -0.145931 0.942452
-19.646900 4.443440 -2.673280 6 6 6 0.604870 -0.014047 0.796200
-18.547400 7.129080 -2.861090 1 1 1 -0.025673 -0.237919 0.970946
-19.705299 7.772190 1.396750 39 39 39 0.845167 0.517416 0.134065
-19.654200 8.271690 -2.935070 35 35 35 -0.100183 -0.276358 0.955819
-17.886200 9.427600 -1.466380 154 154 154 0.461177 -0.882807 -0.089266
-19.643700 8.265580 2.069200 19 19 19 0.930431 -0.275468 0.241693
-19.705400 8.525510 3.428100 35 35 35 0.998114 -0.023469 -0.056724
-19.262800 10.496400 -2.695580 1 1 1 0.138869 -0.156100 -0.977930
-19.700600 10.225900 0.488760 56 56 56 0.970072 0.170988 0.172406
-19.696800 10.223900 0.515872 60 60 60 0.970337 0.167403 0.174419
-19.701401 10.130500 2.549960 50 50 50 0.998900 0.038924 0.026131
-19.573099 12.982000 -1.568450 39 39 39 0.798878 0.324424 0.506501
-19.588600 12.957000 -1.469840 30 30 30 -0.367016 -0.930082 0.015692
-18.738300 13.614200 1.069560 36 36 36 0.119990 -0.865670 -0.486023
-19.709299 13.794500 5.823920 27 27 27 -0.020811 -0.999754 -0.007733
-19.694300 13.381900 6.582410 29 29 29 -0.191308 -0.780173 0.595594
-19.703800 13.494300 11.119700 13 13 13 0.029664 -0.043377 -0.998618
-19.099701 14.360100 -1.725520 22 22 22 0.731076 -0.674226 -0.104629
-19.493299 14.089300 -1.233820 39 39 39 0.963137 -0.252288 -0.093369
-19.493299 14.426600 0.733000 26 26 26 0.789830 0.239881 -0.564469
-19.696501 14.421200 8.266230 22 22 22 0.056625 -0.911120 0.408233
-18.960400 14.590200 8.518890 23 23 23 0.031657 -0.905713 0.422707
-19.650200 14.121400 11.069600 16 16 16 0.024244 -0.087392 -0.995879
-19.708900 16.516500 -2.123450 47 47 47 0.125465 -0.218980 -0.967629
-18.501301 16.772499 -1.477790 83 83 83 -0.129828 -0.416524 0.899807
-18.496000 17.903900 0.538513 11 11 11 -0.424227 -0.777604 0.464073
-18.133600 17.370199 10.323000 23 23 23 0.070238 -0.836784 0.543009
-19.698000 17.761600 10.623300 29 29 29 0.045906 -0.998939 -0.003577
-19.708500 17.769699 12.532700 59 59 59 0.048046 -0.998829 0.005750
-19.686501 17.837500 14.935400 49 49 49 0.046422 -0.998902 -0.006228
-19.527399 17.918501 16.787500 13 13 13 0.046780 -0.996644 0.067181
-19.652800 17.894800 18.755301 61 61 61 0.070260 -0.997272 0.022647
-19.511700 17.945000 21.262400 49 49 49 0.035736 -0.997879 0.054417
-19.485600 17.965000 22.533300 49 49 49 0.042682 -0.998939 -0.017299
-19.651400 18.025700 25.238300 47 47 47 0.032071 -0.999483 0.002397
-19.576700 18.045401 26.933901 49 49 49 0.064344 -0.996272 0.057466
-17.843700 18.110201 11.758200 62 62 62 0.407207 -0.913106 0.020478
-17.834700 18.237301 13.037900 43 43 43 0.325035 -0.939849 0.105057
-17.967501 18.141500 14.761800 0 0 0 0.315573 -0.946799 -0.063127
-17.997601 18.216200 16.607300 0 0 0 0.342641 -0.934364 0.097781
-18.040199 18.210899 19.629900 33 33 33 0.310717 -0.948961 0.054107
-18.702299 18.088800 22.370199 1 1 1 0.235555 -0.969705 0.064693
-19.118200 18.120199 24.119801 3 3 3 0.121114 -0.991760 -0.041751
-19.431601 18.094700 25.164700 5 5 5 0.039005 -0.997044 0.066201
-19.571100 18.130699 27.988001 17 17 17 0.060348 -0.995913 0.067195
-19.610300 18.165701 29.716000 21 21 21 0.087322 -0.996166 0.005386
-19.533899 18.185499 30.777901 14 14 14 0.093393 -0.995177 0.030011
-19.639999 18.191000 32.524799 37 37 37 0.113940 -0.991837 0.057245
-19.660400 18.207800 35.359001 49 49 49 0.107411 -0.992414 0.059810
-19.715700 18.257000 38.170898 67 67 67 0.053245 -0.998124 0.030221
-19.668800 18.258600 39.243500 26 26 26 0.030388 -0.999020 -0.032169
-19.584700 18.271099 41.179001 14 14 14 0.053779 -0.996994 0.055767
-19.587099 18.410900 43.727798 49 49 49 0.106733 -0.992488 0.059791
-19.638300 18.504601 44.735199 0 0 0 0.102592 -0.988252 0.113284
-19.694700 18.463400 46.521702 43 43 43 0.058953 -0.997199 0.046035
-19.632200 18.449400 49.344398 50 50 50 0.073481 -0.993464 0.087354
-19.580500 18.490999 52.177601 37 37 37 0.022158 -0.999464 0.024082
-19.690599 18.501699 53.237499 25 25 25 0.021968 -0.999463 -0.024318
-19.657000 18.422001 54.988701 24 24 24 0.059568 -0.991357 0.116892
-16.784000 -24.184700 2.331580 0 0 0 -0.253654 0.711184 0.655650
-16.507700 -24.174500 3.562480 1 1 1 0.760624 0.513641 0.397019
-16.003000 -25.375200 4.764810 26 26 26 0.279390 0.903585 0.324769
-16.480000 -22.047600 2.115770 1 1 1 0.857495 0.500211 0.120377
-17.712900 -22.731899 3.317100 1 1 1 0.028714 0.169866 -0.985049
-16.927900 -22.530199 4.703090 0 0 0 0.920142 0.196858 0.338505
-16.343399 -17.280500 0.322657 1 1 1 0.348196 0.937416 0.003263
-16.344801 -17.282000 0.530514 1 1 1 0.331659 0.943394 0.002970
-16.702299 -17.705700 2.670840 0 0 0 0.305265 0.949875 0.067458
-16.490200 -17.570700 4.829860 0 0 0 0.429710 0.881102 0.197505
-17.703699 -14.807900 8.936940 0 0 0 -0.018291 -0.155256 -0.987705
-16.983601 -12.021500 -0.269526 93 93 93 0.669308 0.736552 -0.097563
-17.340900 -13.703500 0.885652 18 18 18 0.835447 -0.542268 0.089294
-17.386200 -13.669700 2.775490 40 40 40 0.876010 -0.481222 0.032130
-17.697300 -11.969500 4.817590 64 64 64 -0.057709 0.997514 -0.040436
-17.603600 -12.134100 8.188560 13 13 13 -0.016761 0.997838 -0.063552
-17.490101 -11.992000 8.816160 6 6 6 -0.035676 0.989684 -0.138755
-17.695601 -13.490600 12.384300 17 17 17 0.051738 -0.194076 -0.979621
-16.799200 -12.026000 14.277500 11 11 11 0.179198 0.978429 0.102784
-17.261499 -12.924600 15.888500 21 21 21 -0.101112 -0.138393 -0.985202
-16.868099 -12.045900 18.082899 8 8 8 0.918155 0.369400 -0.143301
-16.771799 -12.428400 18.885700 8 8 8 0.841338 -0.186723 -0.507232
-16.912701 -11.985100 22.244200 6 6 6 0.387321 0.872897 -0.296704
-16.971399 -11.930900 22.559900 5 5 5 0.088043 0.966314 -0.241838
-17.007401 -11.926400 26.297001 5 5 5 0.307950 0.892890 -0.328503
-17.027000 -11.944800 33.408901 19 19 19 0.280176 0.959695 -0.022086
-16.990999 -11.805600 5.530560 68 68 68 -0.047178 0.997107 -0.059605
-17.424700 -11.913500 6.780790 56 56 56 -0.032772 0.997555 0.061733
-17.058500 -11.758600 8.537890 66 66 66 0.576835 0.816835 -0.006545
-17.659401 -11.883500 12.506600 1 1 1 -0.183709 0.979546 -0.082105
-17.709801 -11.885100 12.777100 1 1 1 -0.164388 0.983482 -0.075758
-17.520901 -11.856700 15.333900 9 9 9 -0.059288 0.991549 -0.115389
-17.694599 -11.813100 16.538700 1 1 1 -0.105907 0.994149 -0.021250
-17.583099 -11.804200 18.590900 11 11 11 -0.072944 0.995032 -0.067758
-17.668400 -11.734300 20.592899 1 1 1 -0.140909 0.989995 0.007334
-17.703699 -11.726900 22.783600 7 7 7 -0.083036 0.968830 -0.233397
-17.695999 -11.629500 26.338200 9 9 9 -0.067718 0.997266 -0.029583
-17.700399 -11.601300 27.491501 1 1 1 -0.077002 0.996400 -0.035459
-17.254499 -11.402600 28.588699 33 33 33 0.120589 0.992440 0.022811
-17.388399 -11.367700 30.780899 40 40 40 0.029911 0.987111 -0.157219
-17.482700 -11.306300 33.791698 36 36 36 0.191786 0.960961 -0.199429
-17.345400 -11.279800 34.591999 34 34 34 -0.153913 0.972274 -0.176049
-17.481100 -11.244300 37.251400 29 29 29 -0.011437 0.987768 -0.155511
-17.259501 -11.319800 38.537899 33 33 33 -0.050304 0.997423 0.051154
-17.568701 -11.179200 40.616100 23 23 23 -0.021806 0.988221 -0.151470
-17.507900 -11.141700 42.561401 21 21 21 -0.188043 0.973742 0.128320
-16.832001 -11.256700 45.889198 3 3 3 -0.043635 0.996122 -0.076400
-17.564100 -11.057100 47.469700 15 15 15 -0.032707 0.983953 -0.175407
-17.529301 -11.035800 48.529900 14 14 14 -0.040541 0.997537 -0.057247
-17.477900 -11.065900 51.009102 10 10 10 -0.035212 0.998755 -0.035332
-17.510401 -11.304700 54.446499 47 47 47 -0.049951 0.997525 0.049489
-17.356100 -11.205400 54.587299 35 35 35 -0.021031 0.999491 0.023990
-17.508200 -8.000250 -2.220570 14 14 14 -0.102766 0.965690 0.238498
-17.673100 -8.210770 -1.477980 12 12 12 0.036268 0.999276 0.011507
-17.468000 -7.823780 -2.220140 13 13 13 -0.116351 0.845841 0.520592
-17.681101 -7.601240 -1.400680 4 4 4 0.889951 -0.329616 0.315183
-17.260900 -7.064640 2.444170 1 1 1 -0.347066 0.934690 0.076805
-17.328300 -7.067120 3.483240 0 0 0 -0.340927 0.936544 -0.081574
-17.227100 -7.204490 4.547200 1 1 1 0.470464 -0.882147 0.021938
-17.655899 -7.099730 7.516770 0 0 0 -0.370301 0.928353 -0.032197
-15.879600 -3.974240 3.766850 20 20 20 0.999701 -0.010838 0.021923
-15.895900 -3.788540 3.671290 10 10 10 0.998326 0.014300 0.056048
-15.978700 -1.228880 2.943850 0 0 0 0.997241 0.046934 0.057507
-17.472300 1.320400 -5.464460 255 255 255 0.091369 0.979387 0.180149
-16.027300 0.158487 2.887030 1 1 1 0.972431 0.056272 0.226301
-16.136700 2.388170 2.824650 4 4 4 0.972677 0.010393 0.231928
-16.180201 4.964610 2.972310 68 68 68 0.811955 -0.162940 0.560517
-16.711100 7.559000 -2.879620 1 1 1 -0.007870 -0.430448 0.902581
-16.278999 6.896020 6.074630 4 4 4 0.944803 0.017213 0.327186
-17.684099 9.521140 -1.525160 66 66 66 0.501865 -0.853703 -0.139005
-17.686001 9.522170 -1.474560 57 57 57 0.498696 -0.856400 -0.133723
-16.138300 8.845540 0.536578 9 9 9 0.739439 0.654181 0.158987
-16.130400 8.893230 2.766760 1 1 1 -0.129920 -0.991065 0.030185
-16.805799 8.347680 6.378440 3 3 3 -0.023264 -0.975971 -0.216656
-17.649900 11.738600 -2.710870 44 44 44 0.922128 0.374066 -0.098764
-17.512899 11.615300 -0.900000 118 118 118 0.236930 -0.267027 0.934110
-17.500099 12.283900 -0.619719 103 103 103 0.305607 -0.451115 0.838511
-16.984400 13.695200 1.070710 37 37 37 0.268430 -0.942435 0.199402
-16.581200 13.506000 6.181930 38 38 38 0.479441 -0.870109 -0.114223
-17.686501 13.469200 6.616730 32 32 32 -0.070435 -0.832473 0.549570
-16.966200 13.536600 8.775650 36 36 36 0.834409 -0.550417 0.028320
-17.467501 13.649500 11.073600 13 13 13 0.301001 -0.752392 0.585922
-16.967501 14.365600 -2.116820 82 82 82 0.214015 -0.812243 -0.542640
-17.176100 14.173800 -0.226179 36 36 36 0.182959 -0.424927 0.886546
-16.035299 14.610100 0.830360 25 25 25 -0.135992 -0.965140 0.223632
-16.298901 14.772600 5.523940 1 1 1 -0.025963 -0.409693 -0.911854
-17.704800 14.090200 7.228070 36 36 36 -0.264127 -0.683624 0.680364
-16.638000 14.369900 8.775730 41 41 41 0.920944 -0.318604 0.224397
-17.226700 15.182900 11.027000 4 4 4 0.043915 0.094342 -0.994571
-16.898899 16.606600 -1.933280 11 11 11 -0.009764 -0.149024 -0.988785
-17.242100 16.152599 -0.837130 13 13 13 0.196446 0.026040 -0.980169
-16.471701 17.061600 3.481510 1 1 1 -0.080015 -0.715151 -0.694375
-16.617701 17.082899 4.629810 1 1 1 0.053227 -0.306797 -0.950286
-17.425800 17.419600 13.032100 34 34 34 0.839372 0.503323 -0.205233
-17.662901 18.199600 10.837100 43 43 43 0.396386 -0.915524 -0.068520
-17.694700 18.231100 12.516200 41 41 41 0.425577 -0.900022 0.094042
-17.643299 18.268000 14.537700 38 38 38 0.371767 -0.927036 -0.048927
-17.640200 18.309099 16.515900 37 37 37 0.512507 -0.857216 0.050172
-17.672800 18.341200 18.523399 33 33 33 0.536991 -0.843161 0.026858
-17.673500 18.387100 20.780500 31 31 31 0.419413 -0.906107 0.055350
-17.704000 18.417200 22.524000 29 29 29 0.356824 -0.932561 0.054836
-17.616501 18.462799 24.530100 29 29 29 0.356292 -0.934368 0.003602
-17.688400 18.490900 26.537800 25 25 25 0.364361 -0.930998 0.021978
-17.596800 18.531401 28.528999 24 24 24 0.243808 -0.969065 0.038345
-17.636101 18.571100 30.541300 20 20 20 0.313627 -0.949546 -0.000473
-17.673800 18.609100 32.546902 19 19 19 0.334366 -0.941888 0.032359
-15.717000 20.213301 -1.819800 51 51 51 -0.214667 -0.854825 0.472433
-15.966300 20.375799 -1.327910 46 46 46 -0.051316 -0.824558 0.563445
-15.636700 -23.980499 2.214950 22 22 22 -0.165855 0.856418 0.488918
-15.706100 -25.396000 3.129450 13 13 13 0.355882 0.903772 -0.237789
-15.685600 -25.363701 4.534120 25 25 25 0.325016 0.938485 0.116665
-15.033500 -23.376499 2.089760 8 8 8 0.002947 0.572653 0.819793
-14.463700 -23.919800 2.537670 23 23 23 -0.049497 0.914497 0.401553
-14.564700 -20.057600 4.237740 1 1 1 0.164325 0.057689 -0.984718
-14.580000 -20.186800 4.529780 20 20 20 -0.012285 0.031326 -0.999434
-14.226000 -18.541700 4.385640 17 17 17 0.133964 0.037079 -0.990292
-14.411600 -18.543699 4.523410 24 24 24 0.029610 0.088333 -0.995651
-15.692400 -17.014999 -0.197270 7 7 7 0.236491 0.967935 0.084702
-15.328200 -16.705700 1.875290 0 0 0 -0.044803 0.996958 0.063774
-15.218900 -14.775400 4.865670 35 35 35 0.233974 -0.179090 -0.955606
-14.986400 -13.119600 4.833770 53 53 53 0.120184 0.186427 -0.975090
-15.221000 -11.938900 7.265700 5 5 5 -0.085341 0.994283 0.064168
-15.585000 -12.290800 11.985700 3 3 3 -0.164960 0.820354 -0.547548
-15.485800 -12.793400 15.481600 10 10 10 -0.319792 -0.005003 -0.947475
-14.131900 -12.509900 19.448400 17 17 17 -0.069923 0.016452 -0.997417
-15.709100 -12.491700 22.920700 25 25 25 0.246704 0.096227 -0.964302
-15.711300 -11.962400 33.425201 18 18 18 0.169592 0.871967 -0.459251
-15.710700 -11.880100 4.838490 71 71 71 -0.231534 0.968096 -0.095824
-15.705800 -11.846500 6.786440 78 78 78 -0.077407 0.995387 0.056685
-15.591000 -11.916200 8.828290 5 5 5 -0.158508 0.983237 -0.090112
-15.658200 -11.845000 12.335700 7 7 7 0.130036 0.918992 -0.372216
-15.710100 -11.792200 12.521500 1 1 1 0.020143 0.908030 -0.418420
-15.562800 -11.774900 15.031300 14 14 14 -0.007454 0.999495 -0.030897
-15.700700 -11.726700 16.673800 1 1 1 -0.047751 0.998831 -0.007541
-15.644500 -11.717300 18.879801 9 9 9 -0.103132 0.994095 -0.033745
-15.712700 -11.645700 20.522900 1 1 1 -0.049075 0.998763 -0.007977
-15.511600 -11.620600 22.727699 3 3 3 0.298846 -0.827978 -0.474492
-15.492100 -11.576800 24.599199 5 5 5 -0.063088 0.998004 0.002758
-15.525800 -11.512500 27.755800 1 1 1 -0.044192 0.998859 -0.018098
-15.685000 -11.785800 29.920700 16 16 16 0.065216 0.971894 -0.226207
-15.645000 -11.452000 31.305099 1 1 1 -0.051998 0.995015 -0.085092
-15.692300 -11.701000 33.422501 19 19 19 -0.032148 0.978178 -0.205268
-15.253200 -11.525100 35.571499 8 8 8 -0.176654 0.984148 0.015691
-15.590900 -11.780700 36.913200 8 8 8 -0.193838 0.972483 -0.129244
-15.596200 -11.330200 38.773300 2 2 2 -0.051028 0.998393 -0.024661
-14.296300 -11.034600 40.530201 23 23 23 -0.043025 0.985167 -0.166115
-15.700100 -11.591800 43.924099 14 14 14 0.088501 -0.943640 -0.318922
-15.440600 -11.191700 45.398998 6 6 6 -0.098189 0.994068 -0.046774
-15.593400 -11.184900 46.670101 3 3 3 -0.041345 0.998754 -0.027936
-15.714400 -11.124800 49.599899 2 2 2 -0.060637 0.997811 -0.026384
-15.656600 -11.113900 50.838501 7 7 7 -0.057317 0.998277 0.012568
-14.280600 -11.174600 54.512901 39 39 39 -0.061579 0.997869 0.021566
-15.699800 -11.235600 54.546700 91 91 91 -0.043975 0.997136 0.061527
-14.967000 -8.182340 -1.929710 12 12 12 -0.112267 0.991047 -0.072269
-15.708000 -8.181940 -0.679369 25 25 25 0.010260 0.990107 0.139937
-15.516300 -6.902870 -2.218000 20 20 20 0.905078 0.331223 0.266694
-15.710600 -6.754010 -1.481970 1 1 1 0.783489 0.614947 0.089352
-15.520600 -6.284260 0.674665 28 28 28 0.205844 0.974364 0.090786
-15.143800 -5.824460 3.724040 7 7 7 0.675519 -0.733944 0.070712
-14.186500 -3.815680 -2.391230 10 10 10 -0.037539 0.014491 0.999190
-14.992900 -1.474420 -2.389050 9 9 9 -0.026566 -0.011588 0.999580
-13.760400 7.409260 -2.763650 18 18 18 0.063852 -0.107930 0.992106
-15.694600 8.450590 -2.829580 45 45 45 0.029210 -0.767844 0.639971
-14.771600 9.065650 -1.468510 8 8 8 -0.491644 -0.823137 0.284133
-13.991000 8.657770 2.838360 39 39 39 0.356386 -0.864089 0.355441
-15.684600 10.375000 -1.962430 6 6 6 0.238602 -0.947024 0.214974
-15.671900 10.422800 -1.475660 101 101 101 0.245392 -0.881470 0.403477
-15.509700 12.125700 -2.210900 1 1 1 0.010443 -0.318848 -0.947748
-15.233500 13.774500 1.036980 38 38 38 -0.138741 -0.847401 -0.512505
-14.884400 13.941900 3.485930 25 25 25 -0.002010 -0.982821 0.184548
-15.667900 13.953000 5.399720 2 2 2 -0.006655 -0.503588 0.863918
-15.697900 13.558900 6.632570 35 35 35 0.080315 -0.821254 -0.564882
-15.703300 13.769500 11.096900 13 13 13 0.049298 0.149073 -0.987597
-15.529900 14.259400 -1.919240 37 37 37 -0.105797 -0.993093 0.050727
-15.539500 14.267900 -1.467400 41 41 41 -0.006020 -0.999958 -0.006903
-15.563400 14.253300 0.635221 101 101 101 0.002596 -0.998619 -0.052475
-15.683800 14.801200 5.532210 1 1 1 -0.021134 -0.231424 -0.972623
-15.536300 14.115900 7.127930 23 23 23 0.024047 -0.918617 0.394417
-15.239500 14.672500 8.588130 16 16 16 0.017028 -0.885049 0.465186
-15.669400 14.091200 11.081800 13 13 13 0.029608 0.098816 -0.994665
-13.718000 14.591600 25.205601 23 23 23 0.048771 -0.998622 0.019390
-13.734900 14.643500 28.328899 18 18 18 0.057631 -0.998165 0.018607
