ply
format ascii 1.0
element vertex 710
property float x
property float y
property float z
property uchar red
property uchar green
property uchar blue
property float nx
property float ny
property float nz
end_header
21.528099 -10.227300 51.540298 10 10 10 -0.053023 0.992516 -0.110006
21.210800 -7.218640 0.722715 83 83 83 -0.174413 0.080372 0.981387
22.388500 -5.842360 7.890210 3 3 3 -0.236245 0.099837 -0.966551
20.821100 -3.325130 -0.572755 1 1 1 -0.105527 0.945462 0.308165
20.818501 -3.755240 -0.313359 1 1 1 -0.078207 0.780099 0.620748
22.528799 -1.786950 -0.900334 1 1 1 -0.041288 0.034817 0.998540
22.268600 10.209300 -1.900420 1 1 1 -0.192487 -0.450977 0.871532
22.198299 10.790300 1.085750 33 33 33 -0.665280 -0.743902 0.063343
22.719000 10.552100 3.814960 15 15 15 -0.887797 -0.457871 -0.046586
21.833200 12.293900 -1.905000 1 1 1 0.209938 -0.537438 0.816753
21.723000 11.347000 0.970915 26 26 26 -0.668082 -0.742924 -0.041604
22.731800 11.404900 2.421070 40 40 40 -0.873924 0.055898 0.482837
22.779100 13.245000 -1.925090 0 0 0 -0.030794 -0.596073 0.802340
20.786699 14.589200 7.425170 29 29 29 0.126630 -0.991499 0.029911
20.785200 14.588200 7.529490 29 29 29 0.143383 -0.989495 0.018478
20.802700 15.072800 9.742590 13 13 13 0.205180 -0.978514 0.020295
20.851900 14.671900 11.917800 27 27 27 0.306793 -0.934194 -0.182099
20.901400 14.980200 16.281900 5 5 5 0.207192 -0.478177 -0.853474
21.649599 15.443700 -0.661363 26 26 26 -0.251708 -0.967366 0.029096
21.138100 16.917500 0.091421 14 14 14 -0.228778 -0.062827 -0.971449
20.854099 15.269300 12.739600 27 27 27 0.027647 -0.938090 0.345287
20.988100 15.610100 15.462900 13 13 13 0.311048 -0.822177 -0.476733
20.971600 15.597800 15.539500 26 26 26 0.310926 -0.787375 -0.532320
20.956699 16.080601 19.389601 4 4 4 0.071872 -0.997082 -0.025711
20.846001 15.995400 19.540800 30 30 30 0.043762 -0.998822 0.020945
20.834600 16.067200 22.236099 38 38 38 0.059999 -0.998117 0.012724
20.829599 16.102900 25.036100 42 42 42 0.066294 -0.997521 0.023597
20.975901 16.173401 26.043200 5 5 5 -0.000639 -0.998723 0.050510
20.843901 16.196301 27.793200 8 8 8 0.073813 -0.997053 -0.020912
20.824699 16.179199 30.637699 60 60 60 0.052245 -0.998634 0.000795
20.807199 16.164900 31.722500 42 42 42 0.045246 -0.998973 0.002474
20.929600 16.174101 33.562698 22 22 22 0.025071 -0.999064 0.035255
20.914900 16.203100 36.375301 17 17 17 -0.022216 -0.999084 0.036568
20.829000 16.345699 38.992699 12 12 12 0.055865 -0.998243 -0.019757
20.808500 16.371201 40.040798 3 3 3 0.092178 -0.994062 0.057828
20.808100 16.327299 41.826900 57 57 57 0.036184 -0.998398 0.043489
20.932199 16.380199 44.625401 56 56 56 0.014025 -0.999778 0.015700
20.906601 16.444700 45.630299 9 9 9 0.017058 -0.999216 0.035725
20.785200 16.347700 47.533001 26 26 26 0.040201 -0.997480 0.058461
20.803301 16.402399 50.229500 55 55 55 0.053058 -0.997787 0.040084
20.843201 16.432100 53.032700 52 52 52 0.036062 -0.998763 0.034236
21.109501 16.427200 54.152802 14 14 14 -0.071674 -0.995958 -0.054138
20.804899 16.441999 55.877701 22 22 22 -0.057021 -0.998300 0.012071
20.993799 16.505600 57.859200 10 10 10 -0.006303 -0.999952 -0.007460
20.871500 16.534700 60.317001 15 15 15 -0.085696 -0.996014 0.024748
20.851500 16.560699 62.373699 12 12 12 0.081200 -0.996297 0.028272
20.977400 15.857400 64.388100 15 15 15 0.239603 -0.787116 -0.568365
21.982901 16.661301 65.827003 55 55 55 0.268727 -0.961607 0.055668
22.263300 17.772301 -0.575945 1 1 1 0.046455 -0.207016 -0.977234
21.701300 17.323500 -0.178392 2 2 2 -0.090433 -0.029039 -0.995479
21.314501 30.621901 -1.745880 7 7 7 0.141260 -0.258639 -0.955590
22.212299 31.320601 -1.569570 36 36 36 0.102380 -0.228523 -0.968140
24.773600 -22.406000 1.438910 18 18 18 -0.056364 0.998308 -0.014291
24.129801 -22.439301 1.568800 14 14 14 -0.055808 0.998326 -0.015220
24.096701 -22.409500 3.773160 18 18 18 -0.058526 0.998163 -0.015675
22.787001 -17.453899 5.086260 13 13 13 -0.084009 -0.098079 -0.991627
23.210699 -16.122801 0.669929 2 2 2 -0.032155 0.998951 -0.032599
23.262800 -16.159300 1.526040 1 1 1 -0.007967 0.999734 -0.021657
23.244900 -16.060200 3.758640 1 1 1 -0.994381 -0.101084 -0.031438
24.245300 -11.115700 3.469840 112 112 112 -0.641919 0.759691 -0.103969
22.919600 -11.937200 5.519630 14 14 14 -0.280571 0.366210 -0.887226
23.593599 -11.290200 8.568560 2 2 2 -0.502223 0.856333 0.120272
23.970501 -10.849700 13.105700 5 5 5 -0.321147 0.885417 -0.336009
24.368900 -11.068400 15.417900 11 11 11 -0.900550 0.367656 -0.232033
23.031799 -11.168900 16.591299 11 11 11 -0.522750 -0.060774 -0.850317
23.278400 -11.222600 27.098600 16 16 16 0.386621 0.768171 -0.510331
23.994200 -10.837300 34.117199 14 14 14 -0.294533 0.950745 0.096614
23.186501 -10.771100 0.579536 12 12 12 -0.058282 0.998272 -0.007437
24.249901 -10.678700 3.316820 79 79 79 -0.260072 0.954032 0.148948
23.160900 -10.726100 5.458440 22 22 22 0.008303 0.994966 -0.099864
23.109200 -10.702300 5.781750 40 40 40 -0.022392 0.995296 -0.094253
23.225201 -10.722300 9.474230 2 2 2 -0.046289 0.970131 -0.238125
23.175600 -10.699500 9.527000 3 3 3 -0.037988 0.968861 -0.244674
23.214899 -10.683700 13.017700 3 3 3 0.004098 0.998723 -0.050351
22.867201 -10.664000 13.906300 2 2 2 -0.050829 0.998538 -0.018385
23.033600 -10.638000 16.282700 8 8 8 0.103199 0.983615 0.147826
22.833401 -10.616000 17.792900 2 2 2 -0.049186 0.998786 0.002674
22.833401 -10.582600 19.529900 4 4 4 -0.052163 0.998080 -0.033395
23.005899 -10.558400 22.566700 7 7 7 -0.055527 0.998381 -0.012372
22.926901 -10.522800 23.532600 6 6 6 -0.054590 0.997568 -0.043338
23.713900 -10.778800 27.089300 6 6 6 -0.089120 0.994800 -0.049300
22.844101 -10.453400 28.569799 5 5 5 -0.065412 0.997592 0.023042
22.854500 -10.459000 29.768400 5 5 5 -0.048555 0.998643 -0.018803
24.124001 -10.459700 32.874802 6 6 6 -0.166753 0.978943 0.117749
23.457701 -10.631200 34.098202 13 13 13 -0.118216 0.989929 0.077877
22.888201 -10.374800 36.012699 3 3 3 -0.067768 0.997601 -0.014110
23.714701 -10.286400 39.408901 1 1 1 -0.062258 0.998060 -0.001035
22.988100 -10.317100 39.639999 3 3 3 -0.026394 0.999426 0.021250
23.969000 -10.183700 41.674599 6 6 6 -0.034146 0.998004 -0.053132
23.010099 -10.294900 44.529099 2 2 2 -0.003219 0.999874 -0.015559
23.995701 -10.091300 45.542099 35 35 35 -0.058582 0.997774 -0.031876
23.279200 -10.346800 48.129501 8 8 8 -0.021330 0.999768 0.003018
23.029200 -10.169100 51.478600 2 2 2 -0.068055 0.995914 -0.059356
23.031799 -10.067000 51.769402 25 25 25 -0.062997 0.996525 -0.054486
23.732000 -10.196600 55.267799 62 62 62 -0.049595 0.996768 0.063195
23.286600 -7.053490 1.321630 14 14 14 0.065151 0.120475 -0.990576
22.885799 -7.155340 8.519420 11 11 11 -0.059788 0.091438 -0.994014
23.533300 -6.646650 0.847236 5 5 5 -0.749151 -0.068095 0.658890
23.006599 -6.532270 8.259520 12 12 12 -0.888314 -0.240552 0.391195
22.991100 -3.079930 -1.470670 12 12 12 -0.238222 0.674533 -0.698752
23.770700 -1.765410 -1.578910 0 0 0 -0.438233 0.881334 0.176639
23.594500 -1.811490 -0.212988 1 1 1 -0.509211 0.858668 0.058255
23.575001 -2.020250 2.099590 3 3 3 -0.343256 0.931374 -0.121315
23.142099 8.828660 2.741610 46 46 46 -0.990896 -0.020438 0.133066
24.027100 9.866330 -0.913835 65 65 65 -0.964519 0.140313 -0.223643
24.023701 9.794470 -0.473158 155 155 155 -0.947521 0.187264 -0.259108
22.806700 9.666630 3.090460 44 44 44 -0.929089 -0.012777 0.369635
22.891701 10.388600 3.688830 39 39 39 -0.939332 -0.341608 0.030982
22.889400 10.455800 6.913620 4 4 4 -0.995852 0.003565 -0.090917
23.854000 11.932200 -1.915760 0 0 0 -0.756638 0.012436 0.653715
22.878201 11.263100 2.379050 46 46 46 -0.937156 -0.007542 0.348828
23.523500 11.764600 3.954850 25 25 25 -0.969161 0.244525 -0.030588
22.784700 13.286300 -1.901970 3 3 3 -0.035523 -0.596812 0.801594
23.002100 14.601000 -0.462646 91 91 91 -0.111917 -0.985755 0.125545
22.974899 14.623000 1.581400 89 89 89 -0.729167 -0.577343 -0.367411
23.818399 14.823600 7.425970 56 56 56 -0.004101 -0.957123 0.289653
22.941000 15.131100 7.978930 30 30 30 0.007403 -0.991667 0.128613
22.919399 15.157100 9.760920 26 26 26 0.197495 -0.980304 -0.000383
22.985800 14.911200 11.864300 16 16 16 0.147868 -0.870827 -0.468824
23.231400 15.109200 16.242100 18 18 18 -0.060349 -0.850366 -0.522720
23.958599 15.197700 18.815500 46 46 46 -0.288537 -0.955677 -0.058547
23.258600 15.041400 19.559000 20 20 20 -0.581246 -0.711333 -0.395168
23.204901 15.128900 22.362400 25 25 25 -0.547351 -0.724780 -0.418451
23.232300 15.103400 25.160200 20 20 20 -0.672920 -0.628060 -0.390793
23.228201 15.181800 27.969500 21 21 21 -0.577569 -0.762209 -0.292321
23.157301 15.174900 30.760000 22 22 22 -0.714233 -0.593570 -0.370871
22.986700 15.206300 -0.765139 102 102 102 -0.875104 -0.463031 -0.140693
22.975401 15.198600 0.169171 99 99 99 -0.921701 -0.385703 -0.041236
22.912300 15.700500 1.527960 11 11 11 -0.589991 -0.642077 0.489539
23.442900 15.335500 8.086580 29 29 29 -0.015165 -0.999834 -0.010057
23.415300 15.358600 9.542210 28 28 28 0.100600 -0.992609 0.067876
22.816500 15.377100 13.108300 26 26 26 0.029482 -0.992838 0.115771
22.900101 15.391800 13.541800 26 26 26 -0.042472 -0.983849 0.173886
22.884300 15.421000 15.751300 24 24 24 -0.274274 -0.906625 -0.320633
22.795000 15.443400 17.534000 25 25 25 -0.146914 -0.943438 0.297223
22.838100 15.471100 19.786800 26 26 26 -0.639431 -0.768840 0.003684
22.813101 15.495300 21.776699 22 22 22 -0.604908 -0.788879 -0.108426
22.791800 15.520800 23.795601 20 20 20 -0.518464 -0.854246 -0.038196
22.835300 15.549000 25.782801 18 18 18 -0.613281 -0.785008 0.087454
22.810600 15.572400 27.775400 16 16 16 -0.665543 -0.744426 -0.053677
22.785601 15.596100 29.550200 16 16 16 -0.274736 -0.959531 -0.061807
22.888100 15.622700 31.526501 14 14 14 -0.459517 -0.885320 0.071079
22.817499 15.657100 33.765099 16 16 16 -0.631420 -0.774551 0.037148
22.789900 15.679200 35.790600 13 13 13 -0.558471 -0.826311 -0.072935
22.813299 15.694200 37.550598 10 10 10 -0.670668 -0.734663 0.102344
22.804100 15.729200 39.694302 9 9 9 -0.530509 -0.847649 -0.007160
22.932600 15.646200 41.978500 26 26 26 -0.516312 -0.856397 0.002334
23.030500 15.458000 44.751301 22 22 22 -0.352127 -0.882412 -0.312017
22.829300 15.826800 45.983299 3 3 3 -0.478431 -0.877198 -0.040347
22.932699 15.855500 47.525600 20 20 20 -0.334248 -0.936142 0.109167
23.018299 15.446400 50.325298 20 20 20 0.037305 0.743190 -0.668039
23.007601 15.563500 53.122501 19 19 19 -0.498250 -0.854091 -0.149249
22.827200 15.947300 55.283100 5 5 5 -0.360520 -0.932561 0.018868
22.980499 15.459100 55.917702 18 18 18 -0.393933 -0.917308 -0.057994
23.690800 17.216000 -0.680448 21 21 21 -0.685578 0.174990 -0.706656
23.683001 17.210300 -0.459418 17 17 17 -0.611827 0.193054 -0.767071
24.833200 -22.402700 1.387050 17 17 17 -0.055858 0.998348 -0.013444
24.826300 -22.396799 1.765610 16 16 16 -0.054054 0.998460 -0.012444
24.800100 -22.373899 3.536800 17 17 17 -0.055662 0.998315 -0.016408
26.532700 -18.980301 5.141370 17 17 17 -0.015833 0.018189 -0.999709
26.525400 -18.772600 5.119350 16 16 16 -0.098149 -0.207886 -0.973216
26.523899 -18.622801 5.535190 16 16 16 -0.044701 -0.275859 -0.960158
25.739401 -10.874200 5.191590 39 39 39 0.139468 0.917735 -0.371901
24.930401 -11.929900 9.130980 2 2 2 -0.544011 0.093760 0.833823
26.267900 -10.840500 30.634399 12 12 12 0.076794 0.970732 0.227559
24.851601 -10.682000 0.663334 80 80 80 -0.009718 0.999915 0.008715
24.979300 -10.662900 1.538600 78 78 78 -0.091364 0.995487 0.025661
24.827600 -10.636100 3.764300 86 86 86 -0.437324 0.898851 -0.028549
24.847200 -10.608200 5.538550 77 77 77 -0.113105 0.985587 -0.125800
25.282000 -10.645600 8.792410 3 3 3 -0.111548 0.992249 -0.054762
25.206400 -10.614200 9.529190 3 3 3 -0.087216 0.990365 -0.107563
25.254999 -10.599300 12.531000 4 4 4 -0.156061 0.987716 0.007833
25.164600 -10.525100 14.427500 1 1 1 0.000036 0.999371 0.035467
25.190599 -10.536800 15.785400 6 6 6 -0.089713 0.995087 -0.041872
25.125000 -10.473600 18.045601 4 4 4 0.037143 0.998902 0.028536
25.025700 -10.433600 20.160000 3 3 3 0.014811 0.998416 -0.054274
25.031300 -10.438100 23.414101 7 7 7 0.020569 0.998739 0.045797
24.981600 -10.417500 23.543301 6 6 6 0.004035 0.999870 0.015591
25.017900 -10.396800 26.118000 9 9 9 -0.067997 0.997066 0.035159
24.971701 -10.342900 30.052200 6 6 6 -0.013781 0.998622 0.050645
24.967100 -10.305700 32.467602 6 6 6 -0.022740 0.999730 -0.004844
25.250500 -10.276500 33.537201 6 6 6 -0.094281 0.995109 0.029469
25.475300 -10.443900 37.623299 4 4 4 -0.035089 0.991275 0.127057
25.488600 -10.377800 41.132198 11 11 11 0.015644 0.999604 0.023408
25.053101 -10.275000 44.020500 12 12 12 0.003791 0.999904 0.013298
25.449301 -10.328000 48.138302 9 9 9 0.038354 0.998824 -0.029664
24.830700 -9.970040 51.816200 24 24 24 -0.051016 0.998553 -0.017025
26.005600 -10.025700 53.860901 30 30 30 -0.106533 0.991834 0.070111
26.497801 -10.027100 55.568199 21 21 21 -0.078471 0.995560 0.051984
25.106300 -1.611220 0.299130 5 5 5 -0.465498 0.713877 0.523155
24.895000 12.373600 -1.385820 16 16 16 -0.244731 -0.020451 -0.969375
24.934799 12.472300 -0.458538 103 103 103 -0.852464 -0.297880 0.429619
25.709999 13.101900 2.414410 19 19 19 -0.392843 0.332167 0.857519
25.274900 14.780600 -1.861880 1 1 1 0.357442 -0.883493 0.302778
24.948299 15.012400 0.036120 43 43 43 0.387492 -0.921656 0.020016
25.709400 13.224000 2.390680 17 17 17 -0.434294 0.362643 0.824548
25.166901 14.798100 7.485060 24 24 24 0.015653 -0.932708 0.360292
24.931801 14.786900 7.557960 24 24 24 -0.008637 -0.944548 0.328260
25.028200 15.012500 11.805300 7 7 7 -0.173902 -0.932687 0.315996
24.912701 14.940100 16.873800 31 31 31 -0.055369 -0.987576 0.147063
24.840900 15.195200 17.775801 35 35 35 -0.082918 -0.980699 0.177070
24.843800 15.195700 19.528400 44 44 44 -0.060481 -0.998167 -0.002154
25.659000 15.397200 -1.759450 27 27 27 0.393025 -0.919046 -0.029754
25.702499 15.422600 -0.217054 30 30 30 0.362556 -0.930805 -0.046433
25.804701 15.219200 1.758510 78 78 78 0.332096 -0.903331 -0.271489
24.802500 15.475700 12.804500 25 25 25 0.066986 -0.983339 0.168991
25.287701 16.222799 15.074400 7 7 7 0.376034 -0.908687 0.181344
24.893801 15.969200 16.214701 12 12 12 0.467371 -0.739299 -0.484770
24.823000 15.226800 17.715000 7 7 7 -0.062255 -0.982212 0.177154
24.919399 15.199100 19.533001 44 44 44 -0.064779 -0.997899 -0.001284
24.801399 15.296700 22.268801 20 20 20 -0.043292 -0.999026 0.008494
24.798300 15.292800 25.117901 43 43 43 -0.079389 -0.996829 0.005381
25.079700 15.335600 26.175900 48 48 48 -0.061763 -0.997958 0.016287
24.823601 15.349700 27.891701 39 39 39 -0.018787 -0.999229 -0.034485
24.888100 15.387700 30.685200 57 57 57 -0.017741 -0.998033 -0.060128
24.965799 15.391600 31.793501 39 39 39 -0.062670 -0.997779 0.022556
24.836901 15.397400 33.530899 45 45 45 -0.029232 -0.994767 -0.097903
24.829800 15.347700 36.369400 23 23 23 -0.121677 -0.992547 -0.006729
24.805401 15.374000 39.172298 22 22 22 -0.138214 -0.989547 -0.041143
24.806499 15.415900 41.966801 22 22 22 -0.143222 -0.989455 0.021576
24.792200 15.447900 44.763401 22 22 22 -0.005522 -0.912865 -0.408224
24.794500 15.622300 47.477901 60 60 60 -0.028122 -0.974713 -0.221684
24.983400 15.565600 47.541500 37 37 37 -0.040468 -0.970520 -0.237601
25.009399 15.667500 50.238201 61 61 61 -0.013084 -0.999656 0.022733
24.830799 15.685300 53.051399 64 64 64 -0.117614 -0.992817 -0.021948
24.806101 15.624500 55.933899 23 23 23 -0.120771 -0.991146 -0.055171
28.520700 -23.905500 3.898030 16 16 16 -0.461222 0.779914 0.423094
26.968300 -22.603800 2.305160 16 16 16 0.266729 0.959924 -0.086027
26.784201 -17.912800 4.374170 1 1 1 -0.328523 -0.389444 -0.860469
27.245600 -16.024599 2.724740 1 1 1 -0.073858 0.768287 0.635831
27.401899 -15.886800 3.524050 1 1 1 0.068266 0.568968 0.819521
27.047001 -11.426600 5.189590 34 34 34 0.045085 0.645871 -0.762114
27.184799 -10.847000 8.512810 2 2 2 -0.151462 0.970421 0.187996
26.822500 -10.508300 5.576380 51 51 51 -0.103494 0.990124 -0.094569
26.804199 -10.462800 7.538110 34 34 34 -0.068166 0.997499 0.018708
26.788000 -10.497000 10.318100 1 1 1 -0.079890 0.996678 0.015860
27.173300 -10.726100 11.628300 12 12 12 -0.243045 0.965682 0.091585
27.029301 -10.434500 14.715300 5 5 5 -0.144874 0.989183 -0.022973
26.873301 -10.454300 15.541300 6 6 6 -0.129497 0.991573 -0.003726
27.490900 -10.340100 18.235701 13 13 13 -0.062982 0.998014 -0.000705
27.525200 -10.393100 19.531601 7 7 7 0.005044 0.999520 0.030571
26.828699 -10.361900 22.470900 6 6 6 -0.147297 0.988070 -0.044947
26.952900 -10.334000 23.529800 7 7 7 -0.127684 0.991631 0.019078
26.795000 -10.312500 25.533001 5 5 5 -0.114018 0.993343 -0.016420
27.422600 -10.360800 29.474800 8 8 8 -0.008279 0.999171 0.039871
26.825199 -10.251000 30.188900 4 4 4 -0.081591 0.991699 0.099375
27.391899 -10.351600 33.139301 4 4 4 -0.094887 0.992725 0.074114
27.033199 -10.488300 34.142502 12 12 12 -0.092872 0.993809 0.060973
27.262100 -10.107700 37.084202 5 5 5 -0.049524 0.998668 0.014486
27.280001 -10.076800 37.551102 10 10 10 -0.072789 0.996953 -0.028031
26.979799 -10.431800 41.149899 10 10 10 -0.008344 0.998042 -0.061985
27.276199 -10.001200 41.955200 18 18 18 -0.091913 0.994628 0.047609
26.940901 -10.303900 44.658901 10 10 10 -0.028306 0.998568 0.045391
28.768299 -10.059600 48.168800 6 6 6 -0.067799 0.996278 -0.053225
27.163000 -9.886490 50.819500 10 10 10 -0.049331 0.998676 -0.014570
26.808300 -9.873940 52.143700 23 23 23 -0.065682 0.996572 -0.050297
27.115700 -9.832790 54.262402 32 32 32 -0.105229 0.994197 0.022353
27.070999 -9.701520 55.645199 28 28 28 -0.121904 0.992140 -0.028241
28.254200 8.172820 -1.456910 9 9 9 -0.270158 -0.141664 0.952337
27.048500 10.437500 -0.762950 255 255 255 0.019843 -0.114814 0.993189
26.841499 14.411300 -1.823940 0 0 0 -0.467029 0.494069 -0.733335
27.417200 14.895800 3.081160 24 24 24 0.402587 -0.889985 -0.214127
27.513300 14.902700 3.534060 25 25 25 0.475596 -0.872975 -0.108277
26.866600 15.079600 6.747740 11 11 11 0.003157 -0.995205 -0.097758
26.853001 15.071200 8.340570 21 21 21 -0.056015 -0.997391 0.045543
27.283501 15.132300 10.156700 27 27 27 -0.167321 -0.985813 0.013295
26.821100 15.096300 11.840700 30 30 30 -0.117153 -0.966551 0.228154
27.455601 15.001300 13.754900 21 21 21 -0.888720 -0.456423 0.043074
27.246901 15.108400 16.286501 18 18 18 -0.998445 -0.050040 -0.024559
27.271400 15.120200 19.203300 19 19 19 -0.005685 -0.999369 0.035055
27.207100 15.173900 19.537300 45 45 45 -0.014217 -0.999681 0.020874
27.275700 15.165800 21.839899 18 18 18 0.002132 -0.999708 0.024066
27.246500 15.192500 24.616100 15 15 15 -0.004992 -0.997498 0.070512
26.979799 15.595500 -1.749780 3 3 3 0.168033 -0.984789 0.044221
26.970501 15.499100 0.816589 24 24 24 0.094870 -0.976609 -0.192964
26.801701 15.577300 12.799400 25 25 25 -0.420699 -0.906440 0.037128
27.283001 15.445200 14.592300 56 56 56 -0.978493 -0.206277 0.001356
27.283001 15.308500 15.758200 54 54 54 -0.977950 -0.208744 0.006371
26.797600 15.301400 19.086700 25 25 25 -0.037174 -0.998985 0.025443
27.181900 15.339200 20.237200 82 82 82 -0.005248 -0.999589 0.028171
26.957600 15.390900 21.887800 15 15 15 -0.031109 -0.999262 -0.022541
26.868401 15.382500 24.673901 14 14 14 -0.022514 -0.999427 0.025259
27.020201 15.468300 26.518299 16 16 16 0.008042 -0.999226 0.038495
26.794399 15.426200 29.029301 38 38 38 -0.033010 -0.999405 -0.009990
27.012400 15.281000 30.823000 21 21 21 -0.060029 -0.997696 -0.031607
27.045799 15.433600 33.203899 28 28 28 0.036431 -0.999327 0.004321
27.032900 15.425200 34.726002 27 27 27 0.022277 -0.999690 -0.011105
27.019899 15.371700 36.329800 29 29 29 0.023883 -0.999591 -0.015761
26.987499 15.441000 39.077702 23 23 23 0.042526 -0.999064 0.007968
26.939100 15.592600 40.780300 19 19 19 0.051614 -0.998602 0.011441
26.931801 15.540900 43.299801 18 18 18 0.056187 -0.998109 0.024940
26.930599 15.495100 43.531300 18 18 18 0.062598 -0.997730 0.024839
26.838900 15.756100 47.050201 9 9 9 0.056658 -0.998030 0.026929
27.929100 15.650100 47.591000 19 19 19 0.038718 -0.999007 0.022043
27.898800 15.678200 50.363499 18 18 18 0.044614 -0.998862 0.016835
26.833000 15.659700 51.695702 12 12 12 0.025356 -0.999666 0.005030
26.820700 15.696100 54.264999 15 15 15 0.045185 -0.998823 0.017628
27.745899 15.773100 55.959499 20 20 20 0.054187 -0.998519 -0.004846
27.005600 17.324699 16.199499 11 11 11 -0.486221 0.263379 -0.833199
28.871401 -23.892900 3.913500 16 16 16 -0.136649 0.970383 0.199205
28.836599 -23.864901 5.532230 16 16 16 -0.053269 0.998396 -0.019162
28.916100 -22.493700 2.171180 2 2 2 -0.048037 0.998838 -0.003889
29.068100 -19.440201 4.882570 3 3 3 -0.061252 0.382207 -0.922044
29.203199 -17.127600 5.064610 6 6 6 -0.334393 0.499283 0.799311
29.819500 -14.776800 5.559300 3 3 3 -0.620566 0.349184 0.702117
30.783701 -11.217300 3.210390 87 87 87 -0.991617 0.129215 0.000391
30.775600 -11.214400 3.542280 69 69 69 -0.990800 0.135332 0.000350
30.751699 -11.031900 5.540870 95 95 95 -0.968072 0.133614 -0.212093
30.778700 -10.691400 0.855336 116 116 116 -0.889032 0.441608 0.120846
30.782000 -10.779500 1.531230 134 134 134 -0.909487 0.413193 0.045868
30.761600 -10.773200 3.754910 130 130 130 -0.898035 0.439128 -0.026438
28.881500 -10.402400 5.612840 48 48 48 -0.046367 0.998658 -0.023054
29.200701 -10.685400 9.363400 2 2 2 0.018003 0.998985 0.041289
29.412300 -10.345800 10.974200 12 12 12 -0.030452 0.999388 0.017223
29.373199 -10.374200 13.041000 4 4 4 -0.026045 0.998580 -0.046469
28.877899 -10.322500 14.579600 5 5 5 0.004418 0.999985 -0.003249
29.251499 -10.582000 15.992200 2 2 2 0.024918 0.983503 0.179169
28.931499 -10.508900 18.784500 1 1 1 -0.057364 0.995587 -0.074274
29.033400 -10.505300 19.528799 1 1 1 -0.073490 0.979010 0.190101
29.500000 -10.216100 21.568001 2 2 2 -0.090005 0.995897 -0.009422
28.798700 -10.219200 25.500500 2 2 2 0.034866 0.999151 -0.021966
28.802500 -10.220800 25.765400 2 2 2 0.040731 0.998997 -0.018574
30.654900 -10.104600 28.104000 3 3 3 -0.056595 0.998305 0.013561
29.698099 -10.625400 30.664499 9 9 9 -0.359017 0.916825 -0.174756
28.800400 -10.102600 32.468601 5 5 5 -0.020720 0.999739 -0.009602
28.869900 -10.086600 33.762402 4 4 4 -0.030874 0.999395 -0.015983
28.870100 -10.047800 36.301998 6 6 6 -0.040578 0.999116 -0.011000
30.219400 -9.925350 37.641399 7 7 7 -0.054019 0.997401 -0.047683
30.532200 -9.858870 40.171398 23 23 23 -0.082203 0.996510 -0.014538
28.837099 -9.959330 43.178299 3 3 3 -0.112148 0.993682 -0.004427
28.808100 -9.949690 43.832001 4 4 4 -0.114574 0.993312 -0.014277
28.932100 -10.116700 48.174900 7 7 7 -0.051204 0.996770 -0.061870
29.907700 -9.789160 51.324501 3 3 3 -0.045663 0.997728 -0.049543
28.884001 -9.818100 51.642700 11 11 11 -0.045398 0.998497 -0.030698
29.061701 6.039070 -0.774576 8 8 8 -0.311075 0.140709 0.939911
28.905300 7.851160 -1.328060 8 8 8 -0.310264 -0.063423 0.948533
30.716700 8.591460 -0.471463 10 10 10 -0.376019 -0.006973 0.926586
30.034901 9.221540 -0.690510 6 6 6 -0.299163 -0.219436 0.928627
30.720200 9.474760 -0.474185 6 6 6 -0.151087 -0.528720 0.835241
30.527500 10.819400 2.212670 52 52 52 -0.984554 0.137320 0.108613
28.906500 15.004500 7.530720 20 20 20 0.035813 -0.999258 -0.014201
29.186501 16.192801 -0.809096 6 6 6 -0.964186 -0.261074 -0.046753
28.796600 15.598900 0.887526 23 23 23 -0.048951 -0.896816 -0.439687
30.238100 16.527800 1.859870 248 248 248 0.198422 -0.802715 0.562386
28.971001 15.456600 7.239270 1 1 1 0.298502 -0.950527 -0.086000
29.084600 15.702900 12.877100 21 21 21 0.234974 -0.971886 0.014988
28.805201 15.643800 15.476400 2 2 2 0.176275 -0.982307 -0.063251
28.924801 15.708400 16.253099 10 10 10 0.192559 -0.935976 -0.294737
29.397301 15.441400 18.449900 103 103 103 0.114850 -0.993276 -0.014549
28.859301 15.437600 19.528799 31 31 31 0.118100 -0.991945 0.045800
28.795799 15.494600 22.317801 24 24 24 0.144459 -0.988821 0.036933
28.865400 15.530100 25.131100 34 34 34 0.123724 -0.992289 0.007365
28.809700 15.545900 26.212400 43 43 43 0.150816 -0.988398 0.017998
28.957500 15.577800 27.940599 38 38 38 0.120931 -0.992629 0.007924
29.012800 15.605800 30.735399 54 54 54 0.098418 -0.993466 0.057780
29.030100 15.706600 33.496899 11 11 11 0.092233 -0.995152 -0.034132
28.830900 15.645800 33.524700 39 39 39 0.063461 -0.996024 -0.062513
28.818199 15.684500 36.321499 40 40 40 0.095225 -0.994591 0.041489
28.803301 15.674500 39.169102 45 45 45 0.057274 -0.998341 0.005920
28.803499 15.813100 41.876999 10 10 10 0.054383 -0.998180 0.026069
28.798901 15.668500 44.797600 22 22 22 0.040467 -0.998261 0.042857
28.791300 15.897600 47.493000 10 10 10 0.067538 -0.997072 0.035864
28.812500 15.814500 47.525700 62 62 62 0.057187 -0.998026 0.025946
28.931200 15.925800 50.241600 16 16 16 0.080784 -0.996506 0.021191
28.843901 15.923300 53.082600 48 48 48 0.084544 -0.996311 0.014729
28.935900 15.925100 55.879200 51 51 51 0.050674 -0.998513 0.020114
30.700899 18.421200 1.629080 21 21 21 -0.645139 -0.239418 0.725586
30.700001 34.920601 -1.437010 20 20 20 0.143047 -0.334569 0.931451
30.642799 35.213699 -1.499910 33 33 33 0.182838 -0.386523 0.903975
31.827700 -24.822701 1.032930 15 15 15 -0.998405 -0.054350 -0.015256
31.832300 -25.020800 1.531400 16 16 16 -0.998377 -0.055150 -0.014191
31.783400 -24.089800 1.240010 14 14 14 -0.998462 -0.053694 -0.013768
31.779499 -24.087099 1.540860 16 16 16 -0.998372 -0.054594 -0.016508
30.814600 -23.786301 3.893340 11 11 11 -0.173636 0.984062 -0.038381
31.702400 -22.615801 0.941500 16 16 16 -0.984671 -0.107339 -0.137484
30.802601 -22.386600 2.196720 2 2 2 -0.028301 0.999442 -0.017758
31.692600 -22.790100 3.683910 3 3 3 -0.994794 -0.045993 0.090932
32.500000 -12.918400 5.635740 6 6 6 0.025802 0.717393 -0.696191
30.811100 -11.138900 0.835345 108 108 108 -0.949294 0.311170 -0.044874
30.811300 -11.226700 1.763680 127 127 127 -0.998203 0.059926 0.000805
30.788601 -11.175300 3.529670 125 125 125 -0.987336 0.158071 0.013481
31.993799 -12.671200 5.580710 5 5 5 -0.011660 -0.169917 -0.985389
30.787100 -10.781100 0.834789 120 120 120 -0.902505 0.425939 0.063724
30.800400 -10.353800 1.754780 66 66 66 -0.967049 0.072795 0.243963
30.845100 -10.326200 3.763890 71 71 71 -0.785574 0.611946 -0.091631
30.881201 -10.295500 5.758760 67 67 67 -0.256907 0.929480 -0.264698
30.936300 -10.574700 7.990320 10 10 10 -0.139282 0.969076 0.203695
30.911200 -10.178200 9.699610 113 113 113 -0.233413 0.958141 -0.165781
30.901199 -10.564500 11.926300 5 5 5 -0.113003 0.992045 0.055475
30.850700 -10.203300 13.755700 37 37 37 -0.027380 0.995971 -0.085392
30.845699 -10.375400 15.997500 8 8 8 -0.074070 0.988928 0.128588
30.815001 -10.064900 17.760599 104 104 104 -0.084403 0.995404 0.045243
30.788601 -10.100600 19.774401 101 101 101 -0.088374 0.995970 -0.015257
30.854300 -9.951440 22.214500 40 40 40 -0.196779 0.980381 0.011420
30.997200 -9.913310 24.886801 39 39 39 -0.144171 0.989551 -0.002012
30.967800 -9.904450 25.715200 41 41 41 -0.135304 0.990779 0.007027
30.880600 -9.878030 28.044500 42 42 42 -0.099819 0.994368 0.035609
30.800600 -9.853590 29.793200 35 35 35 -0.186476 0.980264 0.065642
30.945801 -9.815850 31.891001 28 28 28 -0.146156 0.988052 -0.048904
31.853500 -9.928220 33.528198 4 4 4 -0.067931 0.996840 0.041174
31.585899 -9.934190 37.120800 2 2 2 -0.030635 0.999017 -0.032047
30.890499 -9.717260 39.277599 7 7 7 -0.085879 0.994314 -0.062962
30.885300 -9.715780 39.573799 8 8 8 -0.072053 0.995250 -0.065469
31.407000 -9.627200 51.865398 31 31 31 -0.061290 0.996887 -0.049605
30.874201 -8.723990 11.112800 16 16 16 -0.999304 -0.025233 0.027470
32.782902 -3.807310 -1.109240 56 56 56 -0.335317 0.414013 0.846260
32.774899 -2.724540 -1.074340 48 48 48 0.067797 0.844347 0.531490
31.065800 6.455520 -0.789091 4 4 4 -0.287114 -0.082412 0.954345
31.663300 9.158550 -0.514143 9 9 9 0.007408 -0.775389 0.631440
31.681400 9.121000 -0.462459 8 8 8 -0.017853 -0.753331 0.657400
31.632601 9.277380 -0.626077 6 6 6 -0.141254 -0.253686 0.956917
31.591999 9.872790 3.020840 39 39 39 -0.922155 0.098702 0.374016
30.986000 12.633400 -1.746050 1 1 1 -0.019681 -0.310313 0.950431
31.025801 14.986000 -1.709970 70 70 70 -0.385039 -0.805818 0.449891
30.990299 15.113000 -0.225840 114 114 114 -0.815556 -0.570747 0.095475
31.815800 15.167200 7.612830 19 19 19 0.388028 -0.921639 0.003876
30.975201 15.687500 -0.614694 56 56 56 -0.917049 -0.384513 -0.105691
30.990400 15.210000 -0.464724 115 115 115 -0.771459 -0.633024 0.064274
30.918501 16.447500 1.586870 101 101 101 -0.795054 0.346690 -0.497690
32.069599 15.637500 4.675790 89 89 89 -0.154508 -0.977236 -0.145387
31.802900 15.456800 7.430800 0 0 0 0.175095 -0.984545 0.003531
31.729200 15.224100 7.624400 76 76 76 0.337282 -0.941404 -0.000408
32.010101 15.706400 9.589150 78 78 78 -0.038883 -0.995155 0.090306
30.923901 15.804300 12.893200 20 20 20 0.045373 -0.996131 0.075266
31.030100 16.602900 14.565500 62 62 62 0.104268 -0.877870 0.467411
30.996000 16.783100 16.274099 9 9 9 -0.610323 0.774445 -0.166559
30.855801 15.473900 17.653099 16 16 16 0.036472 -0.986959 -0.156784
31.283400 15.584300 25.226500 16 16 16 0.049774 -0.998690 0.011898
31.490499 15.489200 28.040300 21 21 21 -0.036771 -0.998739 0.034189
31.180300 15.676800 30.823200 17 17 17 0.027099 -0.999487 0.017043
30.986099 15.625400 33.621300 18 18 18 -0.023245 -0.999727 -0.002150
31.053400 15.706200 36.424599 19 19 19 0.011616 -0.999906 0.007335
30.996901 15.675700 39.213100 18 18 18 -0.011900 -0.999753 0.018774
31.018999 15.784000 42.028400 18 18 18 0.031404 -0.999384 0.015657
31.018900 15.782100 44.819500 17 17 17 0.010195 -0.999786 0.018021
30.872999 15.853200 47.615299 16 16 16 0.018481 -0.999657 0.018536
30.977900 15.857000 50.388599 20 20 20 -0.008271 -0.999869 0.013931
30.889700 15.907100 53.181499 15 15 15 0.018434 -0.999814 0.005725
30.945700 15.983800 55.994099 16 16 16 0.046707 -0.998865 0.009384
30.873100 17.229401 1.431790 90 90 90 -0.504555 -0.334201 0.796074
30.868000 17.226400 1.787610 114 114 114 -0.551082 -0.400726 0.731934
31.018801 34.663601 -1.693620 12 12 12 0.171351 -0.375431 0.910874
34.062500 -22.841299 1.893180 1 1 1 0.104674 0.534305 -0.838786
34.056099 -23.149900 3.783120 1 1 1 0.178944 0.757354 0.628008
34.235500 -14.310100 0.818960 119 119 119 -0.925451 0.365129 -0.101101
34.226398 -14.306700 1.752130 122 122 122 -0.988733 0.149683 0.001502
34.208199 -14.299900 3.529580 98 98 98 -0.976102 0.216896 -0.013423
33.349098 -13.304600 5.656370 10 10 10 -0.628063 -0.338470 -0.700696
32.794701 -12.654100 5.579500 7 7 7 -0.566676 -0.821815 -0.059149
32.800201 -10.162900 7.504900 23 23 23 -0.018667 0.999599 -0.021280
32.814999 -3.935790 -1.163830 16 16 16 -0.344741 0.427419 0.835743
32.921501 -2.778140 -1.193560 6 6 6 -0.110395 0.635228 0.764394
33.256001 12.498500 -1.708330 1 1 1 -0.266364 -0.377037 0.887070
34.705799 16.173901 0.775291 9 9 9 0.271055 -0.919552 0.284523
32.865601 15.668000 7.056190 13 13 13 0.141158 -0.989664 -0.025278
32.877102 15.219800 7.689490 15 15 15 -0.354276 -0.921830 0.157218
32.875500 15.721800 11.285100 12 12 12 0.049851 -0.994929 0.087353
32.877602 15.722600 11.535800 12 12 12 0.055665 -0.992863 0.105468
35.581699 -14.874600 5.289610 18 18 18 -0.712657 -0.687002 0.141945
34.856400 -13.398000 1.036630 78 78 78 -0.700924 0.686975 -0.191760
34.823101 -13.385500 1.785580 81 81 81 -0.588546 0.808161 -0.022140
34.848301 -14.567900 4.987320 39 39 39 -0.886508 -0.447375 0.118150
35.248600 13.196400 -0.852035 112 112 112 -0.080130 -0.212386 0.973895
35.435200 13.163800 -0.217914 18 18 18 -0.895788 -0.078409 0.437511
35.055302 13.426000 -1.011440 136 136 136 -0.040563 -0.261672 0.964304
35.276402 13.206600 -0.473935 113 113 113 -0.256296 -0.180568 0.949583
35.755600 16.229200 -1.428430 11 11 11 0.054382 -0.998511 0.004293
34.903500 16.161100 -0.018739 104 104 104 0.173963 -0.881846 0.438275
34.838299 15.756000 8.751270 24 24 24 0.010512 -0.999646 -0.024452
34.791100 15.786200 11.296900 20 20 20 -0.227017 -0.962819 -0.146432
34.814301 15.796500 11.777300 15 15 15 -0.307283 -0.950709 0.041588
35.283199 15.687600 15.019700 64 64 64 -0.999222 0.026281 0.029390
35.282299 15.581300 15.532200 63 63 63 -0.999406 0.034307 0.003249
36.751499 51.409100 -1.492160 53 53 53 -0.980195 -0.195202 -0.033376
36.434299 51.652199 0.239246 31 31 31 -0.933295 -0.161810 -0.320591
36.934502 16.263201 -0.902163 18 18 18 -0.005455 -0.998981 0.044802
36.813099 16.264400 -0.457063 16 16 16 0.052793 -0.998271 0.025847
36.954700 15.935100 11.495400 9 9 9 0.212103 -0.974799 -0.069127
36.968300 15.940800 11.775000 8 8 8 0.229037 -0.973022 0.027771
37.072102 17.214500 15.187900 57 57 57 -0.538916 0.737506 -0.407008
37.234200 17.345600 16.072800 17 17 17 -0.596116 0.796147 -0.103902
37.016899 41.159100 -0.239123 44 44 44 -0.311719 0.111489 0.943611
37.487400 41.786400 -0.122580 50 50 50 -0.307897 0.098482 0.946309
37.237499 50.867199 -2.110860 64 64 64 -0.984473 -0.100317 -0.144045
36.979301 51.180401 0.568265 67 67 67 -0.986737 -0.099395 -0.128341
36.978298 51.319801 -1.670530 57 57 57 -0.985007 -0.143446 -0.095838
36.871498 51.439400 0.511931 93 93 93 -0.981503 -0.092548 -0.167592
40.598099 -15.315800 1.137700 92 92 92 -0.127940 -0.113801 -0.985231
40.283699 -9.059610 0.638833 84 84 84 -0.194179 0.094710 -0.976383
39.017399 -8.670010 -0.207811 75 75 75 -0.290859 -0.297020 0.909494
39.257401 -4.808780 1.909160 38 38 38 -0.460149 0.195323 -0.866090
40.121399 -4.557710 -0.113539 4 4 4 -0.386138 -0.114693 -0.915283
39.270401 -4.711020 1.787190 26 26 26 -0.401889 0.194296 -0.894838
39.010601 15.506700 -1.574670 70 70 70 -0.486467 -0.850883 0.198365
38.995998 15.557200 -0.215653 120 120 120 -0.595463 -0.762436 0.253210
38.787998 16.206800 13.110800 17 17 17 0.060140 -0.976546 0.206737
38.893299 18.118999 15.924900 61 61 61 -0.421114 0.802826 -0.422057
40.827000 -10.102400 1.133170 34 34 34 -0.138529 -0.326909 -0.934847
44.509800 -9.305030 -0.430699 29 29 29 -0.172794 0.176399 -0.969033
44.368198 -7.028530 -0.611781 93 93 93 -0.096689 0.265192 0.959335
44.425499 -6.693480 -0.525751 25 25 25 -0.072330 0.125316 0.989477
44.400902 -6.689780 -0.470441 19 19 19 -0.067939 0.103095 0.992349
44.098202 16.069700 -1.258720 30 30 30 -0.160740 -0.971113 0.176358
44.641102 22.669901 20.140600 72 72 72 -0.922255 -0.214205 0.321810
44.627602 22.662300 21.532101 76 76 76 -0.919173 0.301864 -0.252981
46.194099 -19.311001 6.995480 21 21 21 -0.772625 0.634537 -0.020305
45.424900 -8.844390 -0.127217 119 119 119 -0.053828 0.068293 -0.996212
45.464699 -8.792020 -0.137480 122 122 122 -0.056648 0.071822 -0.995808
46.571701 -6.121080 -0.171917 128 128 128 -0.040258 -0.012652 0.999109
45.966000 -4.578750 0.990498 65 65 65 0.011036 0.273721 -0.961746
46.498100 -4.573310 2.811740 17 17 17 -0.182388 -0.561447 0.807163
45.206501 16.214199 -0.806479 79 79 79 -0.362082 -0.932047 0.013559
45.219700 16.154900 0.291869 36 36 36 -0.517267 -0.855773 -0.009295
45.886501 15.745900 1.538900 24 24 24 -0.571695 -0.818871 -0.051129
45.110500 16.369801 7.897090 91 91 91 -0.841270 -0.495183 0.216931
45.086300 16.425501 9.747610 88 88 88 -0.909655 -0.298799 0.288524
45.033798 16.660601 11.591500 56 56 56 -0.378350 -0.846766 -0.373950
45.031300 16.658800 13.524300 85 85 85 -0.954701 0.155712 0.253576
45.016602 16.461300 15.785700 86 86 86 -0.413938 -0.899400 0.140480
44.994900 16.516001 17.792801 80 80 80 -0.992451 0.087748 -0.085676
44.971699 16.570299 19.788500 71 71 71 -0.830820 -0.531312 0.165668
44.941700 16.685801 21.541100 79 79 79 -0.976446 0.213451 -0.031488
44.927101 16.615000 23.527800 80 80 80 -0.980130 0.196417 0.027665
44.901798 16.604601 25.560600 75 75 75 -0.916874 0.389758 -0.086201
44.882801 16.596300 27.752199 69 69 69 -0.938443 0.341759 0.050248
44.860199 16.650900 29.524099 67 67 67 -0.948064 0.317730 -0.014931
44.839600 16.706800 31.530100 60 60 60 -0.960786 0.277125 -0.009567
44.811298 16.759600 33.525600 62 62 62 -0.973366 0.046024 -0.224588
45.455898 17.471399 9.426670 65 65 65 -0.948196 0.317353 0.014532
45.440102 17.202900 9.530400 83 83 83 -0.930447 0.362673 -0.052304
45.228001 18.038799 11.638200 45 45 45 -0.956015 -0.283915 -0.073673
45.390202 17.247601 13.767700 86 86 86 -0.947849 0.317779 -0.024478
45.195000 18.089100 15.778500 44 44 44 -0.777911 -0.570551 0.263298
45.279099 18.519400 17.540501 79 79 79 -0.998321 -0.042973 -0.038844
45.283699 17.924400 20.568199 83 83 83 -0.997553 -0.049763 -0.049113
45.283699 17.660801 21.544201 77 77 77 -0.991780 0.127790 -0.006554
45.278801 17.264900 24.186399 71 71 71 -0.988646 0.150198 0.004503
45.254902 17.386000 25.542801 44 44 44 -0.919536 0.370027 0.132413
45.239201 17.313101 27.840599 68 68 68 -0.973933 0.192891 -0.119364
45.217400 17.434000 29.534800 64 64 64 -0.976940 0.213268 -0.010251
45.019402 19.134399 33.523499 9 9 9 -0.996560 -0.056588 -0.060555
45.262600 19.381901 16.741899 72 72 72 -0.993087 -0.097449 -0.065433
45.238300 19.303900 17.782000 81 81 81 -0.992008 -0.051134 -0.115352
45.213100 19.224701 20.627501 78 78 78 -0.996740 -0.080590 0.003829
45.023602 21.111601 22.893101 43 43 43 -0.988164 -0.143440 0.054377
45.173401 19.205601 24.181000 75 75 75 -0.988240 -0.084787 -0.127253
45.032299 19.681400 26.079100 40 40 40 -0.754322 -0.656387 0.012417
45.032200 20.904800 28.766100 69 69 69 -0.998465 -0.053819 -0.013105
45.033699 20.424400 30.908100 61 61 61 -0.998401 -0.054723 -0.014196
45.018600 19.334801 33.506901 12 12 12 -0.997138 -0.055046 -0.051833
44.890202 20.768101 33.530499 3 3 3 -0.993030 -0.054340 -0.104589
45.134899 21.441799 20.320101 49 49 49 -0.989620 -0.107909 -0.094914
45.033901 21.669600 25.489100 43 43 43 -0.982465 -0.020603 0.185306
45.030102 21.667700 25.566099 20 20 20 -0.981487 0.002521 0.191511
45.002201 21.652901 27.807400 65 65 65 -0.996036 -0.030489 -0.083566
44.982399 21.642401 29.541500 63 63 63 -0.998515 -0.053416 -0.010702
44.948601 21.693701 32.470402 59 59 59 -0.998825 -0.045868 -0.015630
45.002201 23.282900 20.498899 71 71 71 -0.995823 0.086056 -0.030518
44.990101 23.348000 21.530701 69 69 69 -0.977486 -0.077767 0.196147
46.805099 -17.122101 2.128090 12 12 12 -0.546276 0.724573 0.420210
47.532902 -17.865499 5.481820 67 67 67 -0.998595 -0.052082 -0.009760
47.532501 -17.865400 5.547930 65 65 65 -0.998575 -0.052442 -0.009856
48.624199 -15.736300 7.615880 27 27 27 -0.639644 0.666215 -0.383424
48.728100 -14.975500 31.941500 12 12 12 -0.740648 0.671736 -0.014520
46.802101 -5.613910 -0.178445 7 7 7 -0.032548 0.016699 0.999331
47.222198 -4.644540 2.913880 8 8 8 -0.157168 -0.589859 0.792063
47.850101 13.839600 1.851100 1 1 1 -0.513357 -0.771741 -0.375340
46.910599 15.967400 -1.012760 8 8 8 -0.104302 -0.992925 -0.056760
48.209999 16.409599 -0.464762 5 5 5 0.103637 -0.874979 -0.472939
47.299999 15.964000 7.205320 25 25 25 0.065024 -0.993523 0.093186
47.205799 16.064899 7.679020 90 90 90 0.090524 -0.995891 -0.002439
47.180401 16.121000 9.531150 94 94 94 0.107805 -0.993774 0.028115
47.158298 16.178499 11.542900 94 94 94 -0.061379 -0.993842 0.092253
47.143200 16.172300 13.669300 98 98 98 0.086044 -0.996108 0.019096
47.127399 16.166000 15.772700 87 87 87 -0.122091 -0.990851 0.057508
48.429901 16.272301 17.540300 82 82 82 -0.009210 -0.994404 -0.105246
48.384300 16.392000 20.794701 85 85 85 -0.077895 -0.983604 0.162653
47.995098 21.700199 23.973000 25 25 25 -0.201230 0.846936 -0.492144
47.516399 24.810400 23.209700 49 49 49 -0.623973 0.660098 0.418245
48.106701 25.195400 23.576300 71 71 71 -0.586951 0.727025 0.356264
48.104198 25.271700 23.568399 67 67 67 -0.598942 0.717965 0.354676
49.197300 -15.988200 3.450810 36 36 36 -0.746316 0.665361 -0.017533
49.187302 -15.985000 3.774970 67 67 67 -0.745110 0.666823 -0.012621
48.999802 -15.857500 6.818520 21 21 21 -0.689566 0.641361 -0.336384
48.892300 -15.417200 7.741540 36 36 36 -0.653375 0.650880 -0.386595
49.030102 -15.125100 11.268100 31 31 31 -0.728430 0.680445 -0.079900
49.152302 -15.026400 11.524600 25 25 25 -0.743636 0.666653 -0.050792
48.964600 -15.172800 14.557200 25 25 25 -0.743525 0.668504 -0.016522
48.931801 -15.098200 18.284700 21 21 21 -0.742299 0.669902 -0.014951
48.855202 -15.142300 21.382000 10 10 10 -0.751687 0.659411 -0.012013
48.835098 -15.136100 21.524200 14 14 14 -0.746138 0.665628 -0.014735
48.814800 -15.065500 24.893801 17 17 17 -0.744121 0.667854 -0.015943
48.855900 -15.012500 28.221701 5 5 5 -0.764807 0.644156 -0.011543
48.840500 -14.874700 31.858801 12 12 12 -0.745208 0.666710 -0.012738
48.820900 -14.803900 35.294899 12 12 12 -0.744641 0.667262 -0.016457
50.206100 -14.795100 4.069980 32 32 32 -0.750866 0.660239 -0.016866
50.019199 -14.673000 6.881280 40 40 40 -0.717227 0.617264 -0.323375
49.469101 -14.782600 7.740290 33 33 33 -0.682590 0.614789 -0.395101
49.416302 -14.768200 10.941700 37 37 37 -0.743733 0.667326 -0.039205
49.445999 -14.709400 11.538200 21 21 21 -0.745810 0.665199 -0.035748
49.279499 -14.797100 14.984300 18 18 18 -0.741291 0.670871 -0.020493
49.276699 -14.729800 18.169701 21 21 21 -0.743852 0.666089 -0.054859
49.541401 -14.336400 21.514500 20 20 20 -0.744192 0.667814 -0.014214
49.153400 -14.762300 21.551500 20 20 20 -0.742603 0.669538 -0.016104
49.044498 -14.798300 24.944901 18 18 18 -0.741931 0.670187 -0.019696
48.982399 -14.781800 28.509899 15 15 15 -0.743709 0.668327 -0.015344
48.946999 -14.773000 31.950899 12 12 12 -0.749016 0.662450 -0.011588
49.005501 -14.658400 35.137100 4 4 4 -0.755958 0.654463 -0.014318
49.567699 -13.948500 35.550800 12 12 12 -0.743102 0.669058 -0.012708
48.981998 -14.586000 38.591801 4 4 4 -0.754256 0.656391 -0.015778
48.860802 -14.552500 42.459900 9 9 9 -0.739398 0.673025 -0.018096
48.854801 -14.552600 45.580601 10 10 10 -0.747739 0.663851 -0.013687
49.282501 -14.282400 55.899399 33 33 33 -0.611804 0.790998 -0.004387
49.222801 -14.468700 59.341499 33 33 33 -0.684414 0.728340 -0.033154
49.427101 -14.127500 62.816299 32 32 32 -0.698838 0.714388 -0.035725
50.778900 -12.780900 28.504700 12 12 12 -0.745330 0.666515 -0.015534
50.719398 -12.767900 31.884001 12 12 12 -0.746270 0.665489 -0.014330
50.659801 -12.755100 35.369202 11 11 11 -0.744627 0.667313 -0.014943
50.647701 -12.752100 35.552399 10 10 10 -0.747175 0.664467 -0.014624
50.743401 -12.574500 38.875999 4 4 4 -0.745371 0.666486 -0.014795
50.485100 -12.717500 45.607498 6 6 6 -0.743063 0.669065 -0.014477
50.070400 -9.421300 0.167235 30 30 30 -0.135762 -0.547602 -0.825652
49.019600 9.098490 -1.299470 52 52 52 -0.157919 -0.222724 0.962006
48.940899 9.338980 -1.358130 30 30 30 -0.148174 -0.236189 0.960343
49.263401 14.182500 0.311596 2 2 2 -0.279519 -0.025408 0.959804
49.893501 16.143600 6.059690 100 100 100 0.015609 -0.999764 0.015100
49.866901 16.204399 7.781580 92 92 92 -0.002821 -0.999990 -0.003428
49.262299 16.280199 9.913040 16 16 16 -0.008632 -0.997573 0.069091
51.977501 -16.174000 6.430680 5 5 5 -0.424618 -0.893376 -0.146895
51.782799 -13.437800 3.268400 61 61 61 -0.803537 0.593582 -0.044584
50.784100 -14.205600 3.662520 66 66 66 -0.721741 0.680409 -0.127021
50.789398 -13.317100 7.703030 29 29 29 -0.724968 0.612724 -0.314627
50.867802 -13.135400 11.131700 26 26 26 -0.747519 0.662754 -0.044402
50.902199 -13.076100 11.538100 19 19 19 -0.747519 0.663373 -0.033939
50.868000 -13.136800 14.414300 4 4 4 -0.731070 0.680856 -0.044394
50.793499 -13.051100 17.982700 18 18 18 -0.744204 0.665866 -0.052762
50.913601 -12.811000 21.462900 16 16 16 -0.744723 0.667268 -0.011853
50.906200 -12.809100 21.536800 17 17 17 -0.746543 0.665219 -0.012501
50.802200 -12.852700 25.064400 16 16 16 -0.742968 0.669100 -0.017452
51.750000 -12.736300 3.365190 64 64 64 -0.892786 0.367084 -0.261118
51.748901 -12.736100 3.768690 69 69 69 -0.866073 0.447534 -0.222781
51.275799 -12.758700 7.794290 29 29 29 -0.712991 0.618886 -0.329581
51.162701 -12.800600 11.145300 26 26 26 -0.747816 0.662526 -0.042793
51.244400 -12.683900 11.539500 18 18 18 -0.747533 0.662770 -0.043940
51.100399 -12.786600 14.637600 24 24 24 -0.745613 0.666189 -0.015913
51.032101 -12.770900 18.021700 19 19 19 -0.746087 0.664589 -0.040935
51.163799 -12.531200 21.515301 17 17 17 -0.744318 0.667641 -0.015677
50.969700 -12.757200 21.537600 18 18 18 -0.742642 0.669601 -0.010822
50.903900 -12.742500 24.977400 17 17 17 -0.742672 0.669410 -0.018141
50.831902 -12.726500 28.506399 15 15 15 -0.744233 0.667744 -0.015339
50.820599 -12.657300 31.884600 14 14 14 -0.745979 0.665806 -0.014744
50.856300 -12.531900 35.370701 11 11 11 -0.745284 0.666577 -0.015055
50.852001 -12.530900 35.559502 10 10 10 -0.745412 0.666437 -0.014926
50.797699 -12.519700 38.882500 7 7 7 -0.744020 0.668004 -0.014343
51.163200 -12.067100 42.126202 7 7 7 -0.738160 0.674492 -0.013418
51.011299 -12.787900 55.882599 32 32 32 -0.733573 0.679048 -0.027639
51.250000 -12.439800 58.715000 8 8 8 -0.727904 0.684962 -0.031336
50.833099 -9.564820 0.233154 32 32 32 -0.282062 -0.601480 -0.747437
51.032700 16.940100 1.291550 83 83 83 0.078406 -0.692138 0.717494
51.032299 16.939899 1.561980 85 85 85 0.102851 -0.802323 0.587962
51.269798 16.091900 6.798520 22 22 22 0.038707 -0.995981 0.080775
51.158501 16.197300 8.268910 84 84 84 0.020223 -0.999250 0.033035
51.147598 16.193501 9.579780 78 78 78 0.031582 -0.999407 0.013704
51.106701 16.391300 11.848500 82 82 82 0.028052 -0.997811 0.059880
51.448399 16.215200 14.997100 21 21 21 0.120170 -0.992715 0.008705
51.478298 16.224199 15.812400 24 24 24 0.123063 -0.992212 0.019233
51.367699 16.258900 18.899700 20 20 20 0.121368 -0.992608 -0.000248
51.405899 16.270800 19.524401 18 18 18 0.117448 -0.993065 -0.005228
51.376900 16.330601 23.586000 18 18 18 0.119912 -0.992765 0.006175
51.322498 16.381599 28.386801 17 17 17 -0.111091 -0.990775 -0.077610
51.936401 16.576900 29.784500 24 24 24 -0.038961 -0.999098 0.016891
52.495499 16.681400 32.118401 65 65 65 -0.035999 -0.999059 0.024194
50.997601 19.162100 8.743810 26 26 26 -0.479816 0.136219 0.866730
50.995899 19.234400 8.658110 25 25 25 -0.975136 0.024426 0.220257
54.315701 -17.275101 3.070800 21 21 21 -0.642414 -0.519557 -0.563352
54.322601 14.899900 2.990470 60 60 60 0.216861 -0.756464 -0.617036
53.211899 16.485001 0.489099 13 13 13 -0.036063 -0.977742 -0.206687
52.791500 16.352699 6.059270 87 87 87 0.078641 -0.996625 -0.023544
54.174900 16.332100 7.536470 24 24 24 0.089227 -0.995058 0.043579
52.810398 16.284100 9.547720 28 28 28 0.099056 -0.994693 0.027822
54.129200 16.390100 11.825700 24 24 24 0.059200 -0.998170 0.012331
52.786598 16.348000 14.247200 24 24 24 0.115880 -0.993062 0.020017
53.397900 16.536800 15.537300 28 28 28 0.087071 -0.996031 0.018451
54.002300 16.572800 17.746201 78 78 78 0.061472 -0.998045 0.011325
53.379700 16.602301 19.846001 20 20 20 0.098002 -0.994864 0.025316
53.958199 16.632601 21.533400 76 76 76 0.082846 -0.996203 0.026777
53.313099 16.652700 24.181700 24 24 24 0.089473 -0.995778 0.020523
55.090500 -12.102200 11.144600 2 2 2 -0.217316 0.975976 0.015605
55.011799 15.163500 2.865910 61 61 61 -0.270351 0.824774 0.496647
56.630100 16.921600 0.513356 69 69 69 -0.551570 -0.823219 -0.134466
56.625500 16.919901 1.551430 80 80 80 -0.508012 -0.861330 0.005883
55.461700 16.417400 6.078730 86 86 86 0.050628 -0.996906 0.060133
54.859001 16.538200 8.365520 20 20 20 0.087673 -0.995772 0.027410
55.413898 16.554899 9.815970 81 81 81 0.060903 -0.998016 0.015991
54.792500 16.590599 12.646000 22 22 22 0.070295 -0.997525 0.001586
55.370499 16.615700 13.571900 80 80 80 0.051647 -0.998540 0.015824
55.326401 16.675200 17.755501 76 76 76 0.045211 -0.998883 -0.013745
55.992298 16.723499 19.691700 24 24 24 0.050013 -0.998330 0.028923
55.279800 16.733999 22.022499 70 70 70 0.046529 -0.998272 0.035877
56.690800 16.616100 23.956301 13 13 13 0.032131 -0.999294 -0.019473
56.612400 17.223900 1.185160 85 85 85 -0.619162 -0.718688 -0.316427
56.609699 17.223000 1.557050 79 79 79 -0.629399 -0.769057 0.111390
55.032902 21.076599 0.558138 238 238 238 -0.091881 0.101947 0.990538
56.837200 -15.666800 2.404270 185 185 185 -0.003078 0.134408 -0.990921
57.746899 -12.909900 2.236210 25 25 25 -0.021239 0.211885 0.977064
57.801701 -12.769700 2.350680 47 47 47 -0.038220 0.237879 0.970542
57.800598 -12.769800 3.541770 85 85 85 -0.087989 0.194807 0.976887
57.764301 -6.120470 0.093958 81 81 81 -0.213895 0.370603 0.903826
58.477600 14.392500 -0.589335 62 62 62 -0.830088 -0.557432 -0.014979
58.514801 14.245500 -0.246905 102 102 102 -0.843364 -0.536510 -0.029907
