ply
format ascii 1.0
element vertex 701
property float x
property float y
property float z
property uchar red
property uchar green
property uchar blue
property float nx
property float ny
property float nz
end_header
-82.391296 26.290199 67.893700 21 21 21 0.467589 -0.877862 0.103530
-82.390800 26.174601 70.587601 23 23 23 0.445422 -0.893340 0.059515
-82.444199 25.626101 72.908699 20 20 20 0.622477 -0.782197 0.026286
-82.486198 25.636801 76.356102 17 17 17 0.787161 -0.608568 0.100112
-81.528000 25.261999 9.558260 42 42 42 0.692669 -0.721050 -0.017221
-81.671898 24.407499 10.950300 16 16 16 0.586742 -0.701762 0.404059
-81.738701 24.427099 11.725600 14 14 14 0.699056 -0.674197 0.238283
-81.807701 24.446501 15.252000 16 16 16 0.904244 -0.409522 0.120973
-81.865402 24.462999 17.039101 16 16 16 0.768673 -0.590904 0.244898
-81.621300 24.723301 18.158100 38 38 38 0.798557 0.081932 -0.596316
-81.940804 24.483900 20.547199 16 16 16 0.833518 -0.468217 0.293293
-81.937897 24.482401 21.797899 17 17 17 0.632171 -0.773560 0.044328
-81.717300 24.974400 24.639400 39 39 39 0.998894 -0.022989 -0.041021
-81.739403 24.980499 25.810499 42 42 42 0.999811 -0.014045 0.013432
-81.745003 24.869101 27.723801 37 37 37 0.993419 0.001919 0.114524
-81.780899 24.879101 29.765100 37 37 37 0.997931 -0.064067 0.005455
-81.812599 25.000200 31.815399 38 38 38 0.987242 -0.157688 0.022071
-81.839798 25.007200 33.795799 34 34 34 0.998531 0.040832 0.035625
-81.867699 25.014799 35.812302 31 31 31 0.995283 -0.040171 -0.088304
-81.897697 24.910400 37.754398 34 34 34 0.899421 -0.436470 -0.023140
-81.948502 25.036699 40.880798 33 33 33 0.948524 -0.310844 -0.060652
-81.965500 25.269199 42.452801 33 33 33 0.997535 0.067330 0.019744
-81.535500 25.488600 9.406310 43 43 43 0.702632 -0.705868 -0.089764
-81.526703 25.373600 9.757420 40 40 40 0.716025 -0.695572 -0.059057
-81.568001 25.385799 11.722500 39 39 39 0.975085 -0.218444 0.038612
-81.600601 25.282499 14.273500 39 39 39 0.993169 -0.108224 -0.043630
-81.628304 25.290400 16.270100 40 40 40 0.999095 0.028581 0.031484
-81.645203 25.294800 18.510401 39 39 39 0.974664 -0.197306 -0.105360
-81.721901 25.988899 21.703600 41 41 41 0.998700 0.046480 0.020932
-81.724297 25.542500 22.576799 39 39 39 0.998636 0.045901 0.024876
-81.723396 25.316601 23.770300 39 39 39 0.999683 -0.023518 -0.008987
-81.761398 25.327499 25.762600 40 40 40 0.998985 0.043875 0.010224
-81.772903 25.330200 27.770399 34 34 34 0.999245 0.024697 0.029985
-81.792297 25.335300 29.815500 36 36 36 0.998645 0.051023 0.010276
-81.848900 25.464800 31.762899 37 37 37 0.999823 -0.017894 0.005817
-81.859200 25.354200 33.756302 34 34 34 0.998626 0.047710 0.021666
-81.878403 25.358801 35.767300 36 36 36 0.998790 0.048101 0.010249
-81.913597 25.368700 37.820400 33 33 33 0.997373 -0.072405 0.002300
-81.952103 25.379601 39.782200 32 32 32 0.997060 -0.063815 0.042422
-78.543404 27.141399 71.429100 18 18 18 0.951582 -0.139100 -0.274121
-78.025703 27.428101 29.590401 8 8 8 0.292141 -0.873937 0.388443
-78.121696 28.015900 30.613701 8 8 8 0.586226 -0.657542 0.473263
-78.012802 27.315300 32.322498 8 8 8 0.999516 0.028859 0.011621
-78.054703 27.541700 35.347301 11 11 11 0.999656 0.024527 -0.009271
-78.247597 28.615801 36.048000 8 8 8 0.998085 -0.049810 0.036687
-78.242798 27.945999 39.149502 9 9 9 0.999539 -0.020446 0.022463
-78.304604 28.408899 39.760201 5 5 5 0.998714 -0.048901 0.013356
-78.321297 28.413300 42.238602 6 6 6 0.998943 -0.035688 0.028958
-78.386497 28.661800 45.054100 6 6 6 0.998733 -0.050290 0.002067
-78.401604 28.552999 48.236198 8 8 8 0.999099 -0.042419 -0.001215
-78.543198 28.481199 62.846901 10 10 10 0.999966 -0.007319 -0.003862
-78.487701 27.903099 65.694801 15 15 15 0.999787 0.019067 0.007910
-78.501503 27.681200 65.735802 18 18 18 0.999903 0.011796 0.007367
-78.480202 27.565001 68.657799 29 29 29 0.999302 0.034042 0.015391
-78.585197 27.381500 71.448997 19 19 19 0.999204 -0.033450 0.021743
-78.316597 27.398100 71.735199 25 25 25 0.993463 -0.014336 -0.113250
-78.068100 29.552799 32.310299 8 8 8 0.998929 -0.016621 0.043181
-78.031601 29.990400 34.550598 40 40 40 0.995765 0.091565 0.008296
-78.138199 30.252701 37.062000 34 34 34 0.998668 0.050307 0.011453
-78.224701 30.970301 39.711399 28 28 28 0.999434 0.032190 0.009815
-78.223099 30.510201 41.573601 28 28 28 0.999283 0.035254 0.013805
-78.222900 30.509800 42.232101 28 28 28 0.999561 0.029320 0.004200
-78.271500 30.299601 45.638100 31 31 31 0.999246 0.038489 0.005133
-78.266800 30.297400 45.771900 34 34 34 0.998943 0.045496 0.006581
-78.226799 30.167900 48.807201 40 40 40 0.998135 0.060641 -0.006981
-78.240402 29.951099 51.702000 30 30 30 0.992940 0.117585 0.015625
-78.220001 30.163300 51.806400 15 15 15 0.987839 0.154258 0.019435
-78.488503 31.180599 53.980701 20 20 20 0.998934 -0.011436 0.044726
-78.471703 31.172100 57.001801 22 22 22 0.998665 0.050336 0.011614
-78.469704 30.710699 58.907700 22 22 22 0.998732 0.046180 0.020031
-78.486504 30.487200 61.174301 20 20 20 0.999232 0.039165 0.001455
-78.469101 30.031401 62.983200 38 38 38 0.998659 0.047638 0.020245
-78.536499 30.276800 65.689598 29 29 29 0.998458 0.054768 0.009056
-78.490700 30.037901 65.848701 39 39 39 0.997718 0.067436 0.003300
-78.608902 30.644400 68.314697 19 19 19 0.998894 0.042069 0.020980
-78.536003 29.372299 71.574799 42 42 42 0.998756 0.049706 0.003879
-78.654800 30.545401 72.877602 18 18 18 0.998776 0.046739 0.016179
-78.124603 31.383801 33.583401 27 27 27 0.999181 0.038127 0.013532
-78.220398 32.455700 35.122601 31 31 31 0.998309 0.055034 0.018731
-78.235001 31.542500 36.850101 21 21 21 0.999035 0.041819 0.013459
-78.221802 31.536400 38.112400 29 29 29 0.998545 0.048228 0.024119
-78.249001 31.546400 39.800301 26 26 26 0.998942 0.045227 0.008283
-78.267502 31.552799 41.764500 30 30 30 0.998815 0.044690 0.019278
-78.293198 31.446100 43.784901 29 29 29 0.998261 0.047273 0.035204
-78.257202 31.316999 46.218300 14 14 14 0.998490 0.038952 0.038737
-78.283401 31.326500 47.757099 19 19 19 0.999053 0.043270 -0.004644
-78.521896 33.038300 51.067200 17 17 17 0.998041 0.055078 0.029674
-78.469200 32.089500 52.861000 25 25 25 0.998792 0.046948 0.014519
-78.482399 31.515900 53.948200 17 17 17 0.999838 0.004694 0.017381
-78.472900 31.397301 55.903301 25 25 25 0.999132 0.040403 0.010102
-78.488800 31.515800 58.234501 25 25 25 0.998096 0.057738 0.021683
-78.514702 31.299801 60.005600 30 30 30 0.998909 0.046165 0.007078
-78.535896 31.531799 62.762299 20 20 20 0.998022 0.056680 0.027186
-78.563797 31.542200 63.778900 19 19 19 0.998160 0.057149 0.020254
-78.730499 32.879501 67.579597 17 17 17 0.996954 0.075817 0.018280
-78.722504 32.297001 68.486702 17 17 17 0.997068 0.074136 0.018945
-78.651703 31.459999 69.889397 11 11 11 0.998945 0.045571 0.005657
-78.771599 32.314098 73.235001 13 13 13 0.998798 -0.026342 0.041344
-78.269997 33.286400 35.441101 33 33 33 0.998436 0.054364 0.013079
-78.266197 33.284698 35.816101 34 34 34 0.998730 0.046978 0.018206
-78.305603 33.299500 39.279099 20 20 20 0.999248 0.037468 0.009960
-78.344398 33.315800 39.818600 30 30 30 0.997806 0.064575 0.014618
-78.363998 33.437099 41.786900 32 32 32 0.998447 0.052859 0.017604
-78.380096 33.328701 43.816799 33 33 33 0.998417 0.048657 0.028221
-78.467003 33.713299 47.700401 26 26 26 0.998549 0.050650 0.018282
-78.467796 33.594501 48.554100 29 29 29 0.998636 0.051885 0.005916
-78.562401 33.288200 50.933201 7 7 7 0.995270 0.081574 0.052756
-78.497803 33.488098 52.191898 23 23 23 0.999104 0.041486 0.008407
-78.552498 33.395802 54.026100 26 26 26 0.997219 0.074152 0.007414
-78.591599 33.525200 56.938702 21 21 21 0.998167 0.059312 0.012009
-78.586700 33.294300 57.723000 15 15 15 0.998322 0.056721 0.011685
-78.635498 33.541199 61.088299 23 23 23 0.999846 0.015840 -0.007511
-78.720100 33.347301 63.460400 8 8 8 0.996608 0.078770 -0.023816
-78.723999 33.347599 65.484398 16 16 16 0.997578 0.062890 0.029729
-78.742302 33.354599 66.868896 14 14 14 0.997368 0.066744 0.028344
-78.783302 34.070900 68.101402 16 16 16 0.998736 0.048894 0.011648
-78.790398 33.486401 71.349403 26 26 26 0.997781 -0.041772 0.051855
-78.854202 34.098801 72.117401 11 11 11 0.991679 -0.069008 0.108681
-77.976601 36.926701 45.668499 34 34 34 0.988086 -0.153173 0.014951
-77.990601 36.932800 46.792599 23 23 23 0.988746 -0.147680 0.023897
-78.015701 36.943600 48.505100 29 29 29 0.989855 -0.141980 -0.005408
-77.999100 37.054699 51.525799 45 45 45 0.987555 -0.157171 0.005664
-78.092300 36.976200 54.275700 28 28 28 0.988438 -0.147251 0.036159
-78.120796 37.109299 57.055302 27 27 27 0.990376 -0.137149 0.018580
-78.104698 37.222000 58.298100 25 25 25 0.989467 -0.144745 0.001821
-78.235199 35.369801 62.157700 9 9 9 0.980734 -0.182251 0.070326
-78.225197 37.154400 63.925301 20 20 20 0.990510 -0.116963 0.072173
-78.142799 36.872700 65.901703 33 33 33 0.987033 -0.160453 0.004619
-78.196899 36.896500 68.733704 33 33 33 0.990660 -0.135499 0.015289
-78.377197 36.742500 71.421799 30 30 30 0.996162 -0.084788 0.021731
-78.331596 37.078201 71.918404 11 11 11 0.996128 -0.085635 0.019892
-77.988899 37.291199 51.367699 31 31 31 0.988804 -0.149184 0.003178
-78.034302 37.311298 54.227200 30 30 30 0.988198 -0.149220 0.034603
-78.090401 37.336102 57.031399 23 23 23 0.990232 -0.138341 0.017375
-78.058701 37.924500 62.951900 41 41 41 0.992198 -0.116440 0.044548
-78.184700 37.376999 64.057297 16 16 16 0.990204 -0.121155 0.069405
-78.183899 37.375301 65.755096 40 40 40 0.988571 -0.146453 0.035759
-78.254501 38.497299 68.411499 15 15 15 0.996556 -0.081571 0.014912
-78.247002 37.521702 71.467499 41 41 41 0.994994 -0.099403 0.010296
-78.329002 37.319698 72.283501 18 18 18 0.996106 -0.084937 0.023615
-78.054398 39.749401 71.311401 17 17 17 0.995274 -0.096327 0.012274
-76.026703 -32.785301 7.484970 21 21 21 0.339548 0.931642 0.129422
-76.721001 -32.750900 26.168800 41 41 41 0.999726 0.022939 -0.004664
-76.718002 -33.207500 28.430401 63 63 63 0.999240 0.037208 0.011592
-76.718697 -34.012699 30.871901 20 20 20 0.999484 0.031785 0.004598
-76.723701 -34.015301 31.832100 59 59 59 0.999286 0.036239 0.010714
-76.720398 -34.479198 34.587502 59 59 59 0.998816 0.046932 0.012798
-76.782600 -34.278301 37.139500 21 21 21 0.999298 0.036029 0.010306
-76.823097 -33.948299 39.550598 28 28 28 0.999101 0.039242 0.016023
-76.802200 -34.288502 40.088600 22 22 22 0.998716 0.048429 0.014874
-76.844803 -34.191898 42.547401 30 30 30 0.998895 0.044653 0.014634
-76.887497 -33.750198 45.569599 21 21 21 0.997129 0.071626 0.024584
-76.968300 -32.982300 47.556400 54 54 54 0.998956 0.043726 0.013219
-76.969299 -33.788200 48.951000 43 43 43 0.999482 0.028367 0.015200
-76.993202 -33.800098 51.394199 24 24 24 0.999143 0.038851 0.014270
-77.012604 -33.693501 51.785900 36 36 36 0.999309 0.033265 0.016591
-77.059402 -32.911598 55.063499 46 46 46 0.998475 0.052912 0.015737
-77.059502 -33.601700 56.833000 23 23 23 0.998875 0.045745 0.012512
-77.124397 -33.056900 59.665401 41 41 41 0.998810 0.046395 0.015015
-77.071899 -33.956001 60.509201 19 19 19 0.998324 0.056064 0.014335
-77.146797 -33.529202 63.707001 43 43 43 0.998677 0.049746 0.013015
-77.218102 -32.757500 65.424004 39 39 39 0.999041 0.040222 0.017312
-77.197899 -32.977798 65.884697 37 37 37 0.998325 0.056728 0.011404
-77.253502 -32.889599 69.521599 34 34 34 0.998412 0.053910 0.016367
-77.278999 -32.900700 69.900902 32 32 32 0.999029 0.040662 0.016990
-77.285400 -33.019100 71.781898 29 29 29 0.998653 0.050168 0.013244
-77.397400 -32.728401 79.858002 26 26 26 0.996594 0.079485 0.021943
-77.861801 -32.194801 7.630380 18 18 18 0.100803 0.000045 0.994906
-77.855904 -32.192402 7.739220 16 16 16 0.146535 0.016213 0.989073
-76.624100 -31.011499 15.598200 28 28 28 0.952109 0.233083 -0.197892
-76.612099 -31.117901 15.732800 32 32 32 0.957514 0.197302 -0.210330
-76.678001 -31.034800 19.517500 56 56 56 0.988535 0.121044 -0.090256
-76.667801 -31.030701 19.734400 61 61 61 0.987624 0.155945 -0.016753
-76.722801 -30.942301 22.138800 24 24 24 0.927477 0.177044 -0.329305
-76.719597 -32.295799 25.659700 57 57 57 0.999168 0.040046 0.007664
-76.719101 -32.523399 26.546301 56 56 56 0.999248 0.037879 0.008335
-76.727402 -32.641102 27.753901 59 59 59 0.999133 0.039877 0.011996
-76.749298 -32.651402 29.752199 58 58 58 0.998916 0.045290 0.010756
-76.779900 -32.551800 31.738701 57 57 57 0.998898 0.046086 0.008852
-76.795097 -32.672798 33.728001 56 56 56 0.998952 0.044581 0.010335
-76.830399 -32.461399 35.730099 52 52 52 0.998832 0.044831 0.018046
-76.858597 -32.702301 37.978901 53 53 53 0.998734 0.048551 0.013167
-76.968399 -31.051001 40.841999 53 53 53 0.998882 0.045188 0.013895
-76.968498 -31.842600 43.581799 46 46 46 0.998825 0.046123 0.014844
-76.968597 -32.297298 45.014400 48 48 48 0.999058 0.040655 0.015192
-76.970901 -32.640400 45.726601 44 44 44 0.999078 0.039787 0.016150
-76.992401 -32.536598 47.741001 44 44 44 0.998994 0.043166 0.012179
-77.025101 -32.551601 49.728199 45 45 45 0.998806 0.046151 0.016021
-77.056602 -32.680500 51.974499 46 46 46 0.998943 0.042781 0.016803
-77.084900 -32.694500 54.808701 42 42 42 0.999256 0.037255 0.009961
-77.101799 -32.702801 56.481400 39 39 39 0.999002 0.042849 0.012614
-77.233299 -30.830799 59.482201 37 37 37 0.998944 0.044691 0.010645
-77.225197 -31.504200 61.158199 35 35 35 0.999007 0.041764 0.015492
-77.225403 -31.961100 63.562698 35 35 35 0.998871 0.046067 0.011577
-77.224403 -32.531300 64.429604 32 32 32 0.998941 0.044758 0.010657
-77.224800 -32.532101 65.780403 35 35 35 0.998602 0.051230 0.013042
-77.237503 -32.652802 67.758499 37 37 37 0.998333 0.055964 0.014098
-77.296303 -32.450298 69.772697 27 27 27 0.998884 0.044176 0.016736
-77.297203 -32.681198 72.461098 30 30 30 0.998097 0.060411 0.012402
-77.324203 -32.693802 74.154800 35 35 35 0.998384 0.055643 0.011534
-77.372498 -32.716202 77.456299 31 31 31 0.996456 0.084080 -0.002412
-77.391197 -32.267502 78.696999 25 25 25 0.991587 0.128415 0.016297
-77.476799 -31.962299 80.725601 23 23 23 0.994586 0.099749 0.029121
-77.523201 -31.982599 82.829498 22 22 22 0.992962 0.112349 0.037481
-77.560799 -30.753799 84.802399 18 18 18 0.987151 0.159224 0.013417
-76.736900 -28.829500 7.402980 12 12 12 0.054368 0.006310 -0.998501
-76.732697 -28.941000 15.629800 71 71 71 0.998716 0.050592 0.002528
-76.753403 -28.949499 17.670500 67 67 67 0.998681 0.048299 0.017417
-76.720901 -30.156401 18.912300 29 29 29 0.997419 0.071780 -0.001899
-76.737000 -29.941999 21.249800 21 21 21 0.997740 0.064059 0.020271
-76.785301 -30.630800 22.048201 17 17 17 0.978987 0.134141 -0.153593
-76.771896 -30.626600 24.174601 61 61 61 0.999212 0.036698 0.015097
-76.791199 -30.635099 25.764900 63 63 63 0.999020 0.041655 0.014964
-76.810402 -30.643600 27.722401 64 64 64 0.999019 0.043193 0.009757
-76.841499 -30.546600 29.784100 64 64 64 0.999130 0.040582 0.009602
-76.971100 -29.482599 33.672901 10 10 10 0.998329 0.056728 0.010967
-76.992897 -29.491800 35.264301 8 8 8 0.999250 0.036818 0.011994
-76.968201 -30.040501 37.715199 59 59 59 0.997838 0.063253 0.017823
-76.969902 -30.713600 39.671398 55 55 55 0.998836 0.046866 0.011382
-76.974197 -30.715300 39.801701 59 59 59 0.998801 0.047300 0.012657
-77.003197 -30.506100 41.777802 56 56 56 0.998981 0.043425 0.012336
-77.026100 -30.627701 43.819401 47 47 47 0.998996 0.042531 0.014072
-77.061203 -30.531401 45.802502 53 53 53 0.998933 0.043318 0.016009
-77.084198 -30.541700 47.738499 53 53 53 0.999104 0.041020 0.010409
-77.123001 -30.670200 50.632599 51 51 51 0.999169 0.039126 0.011419
-77.138496 -30.452299 51.815399 50 50 50 0.998994 0.043118 0.012347
-77.239197 -29.597900 55.523300 45 45 45 0.998901 0.045204 0.012420
-77.220398 -30.038799 55.909199 45 45 45 0.998709 0.048826 0.013981
-77.226601 -30.716801 59.408100 41 41 41 0.998860 0.045055 0.015782
-77.234596 -30.720301 60.047600 42 42 42 0.998848 0.045072 0.016441
-77.262299 -30.620800 61.768299 40 40 40 0.998839 0.047088 0.010153
-77.297501 -30.523199 64.514999 41 41 41 0.998967 0.043442 0.013308
-77.333298 -30.538700 66.577400 35 35 35 0.998682 0.049318 0.014231
-77.339699 -30.541800 67.791397 37 37 37 0.998636 0.050671 0.012568
-77.369102 -30.554701 69.748001 37 37 37 0.998383 0.055421 0.012625
-77.468300 -29.697001 73.571404 33 33 33 0.998904 0.044551 0.014371
-77.477997 -30.038601 74.019897 28 28 28 0.998528 0.050447 0.019943
-77.500999 -30.048700 75.739601 27 27 27 0.998276 0.056860 0.014553
-77.494400 -30.382000 78.507401 32 32 32 0.987226 0.159257 -0.004766
-77.662498 -29.330500 83.286903 24 24 24 0.988418 0.151755 -0.000702
-77.639702 -29.658899 83.744598 23 23 23 0.987456 0.157880 0.001997
-76.740501 -28.614901 7.349800 16 16 16 0.068889 -0.008240 -0.997590
-76.752602 -28.509600 7.731440 18 18 18 -0.032011 0.060035 -0.997683
-76.731003 -28.614201 15.317300 71 71 71 0.998843 0.046326 0.012906
-76.737900 -28.616899 15.745100 72 72 72 0.998828 0.046852 0.012132
-76.767998 -28.519300 17.751400 64 64 64 0.999110 0.039323 0.015294
-76.794098 -28.639601 19.746401 65 65 65 0.999017 0.040747 0.017456
-76.819000 -28.649700 21.722900 69 69 69 0.999021 0.043276 0.009206
-76.849297 -28.661800 23.726200 66 66 66 0.999237 0.036964 0.012629
-76.871498 -28.671301 25.757401 65 65 65 0.999350 0.026680 0.024228
-76.903198 -28.462799 27.735701 65 65 65 0.999467 0.031611 0.008105
-76.967400 -28.266600 31.279100 62 62 62 0.999092 0.035286 0.023869
-76.967102 -28.266701 31.751900 58 58 58 0.999273 0.032598 0.019792
-76.986504 -28.718300 34.332600 60 60 60 0.999196 0.030987 0.025457
-77.002197 -28.614901 35.756901 60 60 60 0.999744 0.021778 0.006139
-77.037399 -28.629000 37.752701 57 57 57 0.999136 0.037978 0.016865
-77.068604 -28.530300 39.743999 53 53 53 0.998847 0.045112 0.016420
-77.079399 -28.646799 41.724098 54 54 54 0.999043 0.043251 0.006584
-77.121597 -28.552200 43.794300 55 55 55 0.998795 0.046464 0.015799
-77.157799 -28.455000 45.908699 58 58 58 0.998788 0.047877 0.011432
-77.217300 -28.259501 49.557999 50 50 50 0.998610 0.051008 0.013250
-77.226501 -28.595600 51.589001 48 48 48 0.998789 0.046991 0.014550
-77.220703 -28.705299 51.930698 45 45 45 0.998819 0.046830 0.012933
-77.250900 -28.494101 53.730598 42 42 42 0.998810 0.047259 0.012018
-77.308502 -28.517799 57.692902 44 44 44 0.998779 0.048275 0.010456
-77.307503 -28.629601 57.908501 43 43 43 0.998710 0.049642 0.010704
-77.336502 -28.529600 59.901199 41 41 41 0.998801 0.046853 0.014180
-77.373299 -28.324400 61.870300 36 36 36 0.998855 0.045576 0.014517
-77.403801 -28.557699 65.336197 37 37 37 0.998932 0.043735 0.014919
-77.421402 -28.453699 65.785599 37 37 37 0.998758 0.047712 0.014337
-77.476097 -28.475901 69.290398 46 46 46 0.998667 0.049679 0.014027
-77.476303 -28.476601 70.000702 32 32 32 0.998924 0.044514 0.013013
-77.505302 -28.488199 71.829201 32 32 32 0.998757 0.047380 0.015500
-77.653999 -28.549500 82.247902 22 22 22 0.993207 0.116216 -0.005891
-77.064102 -15.701900 -3.516800 103 103 103 -0.083267 0.993557 -0.076886
-77.065002 -15.702500 -2.230120 87 87 87 0.997425 0.070557 0.012881
-77.125801 -15.515000 1.583950 67 67 67 0.998069 0.060261 0.015088
-77.113602 -15.814200 1.847190 83 83 83 0.997992 0.061760 0.014039
-77.097702 -16.215500 5.418700 86 86 86 0.994484 0.104525 0.008753
-77.926697 27.499399 29.422100 33 33 33 0.305698 -0.877172 0.370295
-77.964699 27.299601 29.815300 13 13 13 0.252026 -0.861845 0.440121
-77.886597 35.696201 38.212299 7 7 7 0.976541 -0.210728 0.044294
-77.831299 36.741402 40.196098 43 43 43 0.984495 -0.162064 0.067113
-77.920799 36.902500 41.827000 34 34 34 0.989111 -0.146916 0.008662
-77.949898 37.035000 45.645599 32 32 32 0.987672 -0.155335 0.019365
-77.958000 36.917801 45.792900 40 40 40 0.987765 -0.154751 0.019304
-77.940300 36.787899 48.746899 38 38 38 0.988160 -0.152972 -0.011828
-77.965401 35.960098 51.552898 38 38 38 0.974896 -0.221156 0.025847
-77.917702 37.137100 51.764301 21 21 21 0.984117 -0.177516 -0.001595
-77.962196 37.276699 54.479900 41 41 41 0.984463 -0.173378 0.027794
-77.876900 37.967899 40.814899 9 9 9 0.994457 -0.104239 0.013759
-77.938400 37.392101 42.612999 16 16 16 0.990952 -0.131196 0.028329
-77.892197 37.368999 44.078300 12 12 12 0.989454 -0.144540 0.009442
-77.935303 37.388302 46.454601 21 21 21 0.988938 -0.146940 0.020262
-77.828300 38.546398 48.602200 22 22 22 0.990710 -0.135979 -0.001759
-77.965302 37.279900 51.495499 38 38 38 0.987530 -0.157432 -0.000174
-77.958504 38.232101 63.026100 37 37 37 0.989089 -0.135758 0.057212
-77.768898 39.371201 48.549400 16 16 16 0.992348 -0.123445 -0.002565
-77.700798 39.334999 51.561901 40 40 40 0.988979 -0.147695 0.010314
-77.922897 39.807400 71.562401 43 43 43 0.993117 -0.117106 0.001996
-75.726601 -32.883099 7.202180 25 25 25 0.339409 0.935801 0.095282
-75.731499 -32.885300 7.725640 22 22 22 0.342663 0.936913 0.069112
-75.932701 -34.267601 79.083702 27 27 27 0.902550 0.429355 -0.032536
-75.785599 -31.563200 16.548800 47 47 47 0.770697 0.636575 -0.028273
-75.766502 -31.556499 19.787600 55 55 55 0.852382 0.518277 -0.069532
-75.762100 -31.556000 22.644199 55 55 55 0.750025 0.658694 0.059874
-75.821899 -26.014799 8.406160 7 7 7 0.071366 0.136187 -0.988109
-73.644096 -35.790798 6.953910 21 21 21 0.949309 -0.314165 0.010623
-73.580399 -35.533901 8.130420 17 17 17 0.948376 -0.316537 0.019691
-73.945000 -33.443699 7.067060 19 19 19 0.531756 0.747091 0.398862
-73.247902 -34.583401 7.784920 13 13 13 0.949796 -0.312737 0.009111
-72.980797 -34.352402 26.865299 15 15 15 0.381666 0.922750 0.053512
-72.542099 -34.480499 29.441401 16 16 16 0.544815 0.825138 0.149413
-72.766098 -34.375801 47.445702 13 13 13 0.247693 0.966931 -0.060773
-73.032501 -31.065100 17.503500 7 7 7 0.125810 0.983338 -0.131220
-72.195999 -31.248699 23.702299 28 28 28 0.182999 0.495508 -0.849108
-72.344101 -31.204300 23.818899 27 27 27 0.182503 0.606137 -0.774139
-73.186096 5.537200 -2.235800 79 79 79 0.095454 0.298706 -0.949559
-69.992302 -42.961201 26.681101 51 51 51 0.649578 -0.753267 0.103135
-70.015503 -42.858200 30.219500 43 43 43 0.991889 -0.126968 0.005919
-70.234703 -43.234901 32.311298 25 25 25 0.921927 -0.386982 0.017206
-70.228600 -43.233002 35.577099 42 42 42 0.947126 -0.320402 0.017160
-70.198898 -43.214802 35.807999 24 24 24 0.957848 -0.286665 0.018697
-70.298500 -43.277901 38.475300 38 38 38 0.944114 -0.329305 0.014402
-70.221703 -42.990601 40.607498 22 22 22 0.946858 -0.321501 0.009841
-70.417198 -43.232201 44.063099 31 31 31 0.927216 -0.374213 0.015348
-70.497704 -43.530499 47.227001 38 38 38 0.951658 -0.306872 0.013275
-70.555000 -43.445499 53.305199 26 26 26 0.954231 -0.298703 0.014827
-70.550797 -42.963001 58.747398 40 40 40 0.983616 -0.161124 0.080867
-69.971100 -42.593102 32.335602 42 42 42 0.941205 -0.337485 0.015428
-69.978699 -42.598598 33.775299 44 44 44 0.937309 -0.348317 0.011295
-69.978600 -42.478100 36.273701 40 40 40 0.940380 -0.339650 0.017982
-70.014603 -42.500900 37.779701 38 38 38 0.941102 -0.337599 0.018835
-70.065399 -42.533401 40.079300 41 41 41 0.941198 -0.337628 0.012380
-70.044197 -42.400200 41.797501 40 40 40 0.942164 -0.334836 0.014566
-70.127701 -42.573601 44.016701 42 42 42 0.942183 -0.334730 0.015732
-70.135597 -42.458900 46.776699 37 37 37 0.940126 -0.340329 0.018399
-70.269600 -42.663502 49.712101 34 34 34 0.941742 -0.335948 0.016145
-70.225304 -42.515301 49.748402 38 38 38 0.941084 -0.337734 0.017234
-70.312202 -42.691101 52.463402 37 37 37 0.944267 -0.328963 0.011941
-70.297997 -42.442600 55.996899 32 32 32 0.949879 -0.312186 0.016451
-70.328400 -42.462200 57.850700 31 31 31 0.982534 0.183958 0.028038
-70.783600 -41.177898 61.258301 12 12 12 0.936249 0.351134 -0.011960
-70.767303 -41.646000 62.716999 37 37 37 0.938609 0.344372 0.020510
-70.751900 -41.637901 63.854198 34 34 34 0.948023 0.301923 0.100473
-70.729202 -40.796001 71.676697 25 25 25 0.892469 0.450022 -0.031286
-70.837097 -40.977001 73.538803 24 24 24 0.790446 0.612452 -0.009897
-70.778297 -40.825802 73.745598 30 30 30 0.781505 0.623513 -0.021937
-70.055099 -39.796600 29.751400 19 19 19 0.997794 0.056200 0.035345
-70.042900 -39.792900 35.635101 19 19 19 0.999945 0.009489 0.004486
-70.293602 -39.703899 35.769798 19 19 19 0.995313 0.096283 -0.009023
-70.029099 -39.786900 38.693401 14 14 14 0.999904 -0.013532 0.002826
-71.633698 -39.767502 60.674099 30 30 30 0.891666 0.450451 -0.045013
-71.734100 -39.942699 64.102303 17 17 17 0.825498 0.564017 0.020933
-71.720901 -39.819401 65.839798 23 23 23 0.880637 0.470270 0.057667
-70.720100 -40.674999 73.224197 23 23 23 0.772021 0.634230 -0.041664
-70.740997 -40.687302 73.798302 25 25 25 0.773948 0.632345 -0.033826
-70.779198 -40.710602 75.724297 15 15 15 0.777732 0.628595 0.001106
-70.363701 -37.210201 26.610701 14 14 14 0.960274 0.241602 -0.139649
-70.402496 -37.232399 29.659000 20 20 20 0.987045 0.151067 0.054046
-70.398102 -37.230099 29.774000 20 20 20 0.983744 0.166963 0.066110
-71.454102 -34.848400 26.553101 17 17 17 0.731159 0.675976 -0.091988
-70.471497 -35.142899 29.486900 15 15 15 0.921309 0.385657 -0.049581
-70.739098 -35.053101 29.737101 21 21 21 0.883545 0.467211 0.032599
-71.273300 -34.876301 32.422199 15 15 15 0.234661 0.948525 -0.212686
-71.244400 -34.863998 35.710899 18 18 18 0.197874 0.781172 -0.592128
-71.228104 -34.856098 35.819599 13 13 13 0.198163 0.789476 -0.580912
-70.830704 -34.991001 38.553699 17 17 17 0.206144 0.899492 -0.385251
-70.245796 -31.986799 6.672430 12 12 12 0.197615 0.071502 0.977669
-70.813499 -31.710800 15.035200 29 29 29 0.306611 0.951821 0.005224
-71.835800 -31.411900 17.596399 17 17 17 0.292239 0.956344 0.001624
-71.802902 -31.397600 17.792801 27 27 27 0.302484 0.953154 -0.001279
-71.922501 -31.344900 23.689301 27 27 27 0.189702 0.474020 -0.859836
-71.779602 -31.390100 23.789600 26 26 26 0.017988 -0.584480 -0.811209
-71.729897 -17.075300 4.143460 24 24 24 0.998642 0.050218 0.013891
-71.718002 -14.988100 -4.381960 22 22 22 0.978455 0.198086 0.058211
-71.717598 -15.461600 -2.892660 111 111 111 0.993739 0.108330 0.027352
-71.717300 -16.025200 -1.004990 107 107 107 0.998345 0.055565 0.014822
-71.724899 -16.027000 -0.266129 103 103 103 0.998319 0.056119 0.014504
-71.758400 -15.941500 2.013780 87 87 87 0.997713 -0.004763 0.067428
-71.768898 -16.609501 3.752000 25 25 25 0.999462 0.031085 0.010447
-71.767403 -14.715800 -3.988950 81 81 81 0.983460 0.170435 0.061310
-70.555000 5.515820 -2.284930 10 10 10 0.304465 -0.713612 0.630919
-70.547203 5.515190 -2.197890 10 10 10 0.285636 -0.691777 0.663217
-69.939697 -42.809898 26.495800 48 48 48 0.916041 -0.388006 0.101587
-69.890198 -42.660999 26.428600 48 48 48 0.971463 -0.214562 0.101108
-69.963997 -42.707901 29.911699 47 47 47 0.994020 -0.107057 0.021518
-69.950996 -42.580700 31.736099 41 41 41 0.940508 -0.339437 0.015046
-69.935204 -42.450500 33.821499 42 42 42 0.941134 -0.337788 0.012854
-69.925797 -42.325600 36.433899 43 43 43 0.939720 -0.341447 0.018447
-69.964600 -42.349800 37.942200 42 42 42 0.941666 -0.336049 0.018338
-69.922699 -42.087601 41.603901 43 43 43 0.939935 -0.341087 0.013507
-69.929398 -42.091599 41.737099 40 40 40 0.941329 -0.337206 0.013874
-69.788300 -39.878399 29.965099 16 16 16 0.996105 0.034018 0.081350
-69.918503 -39.838100 35.500500 18 18 18 0.999255 -0.035759 0.014506
-69.956100 -35.325199 26.790001 22 22 22 0.554595 0.810844 0.186965
-69.925201 -35.859699 29.450800 11 11 11 0.805713 0.588998 -0.062509
-69.957298 -35.876301 29.799900 13 13 13 0.826609 0.561038 -0.044197
-68.006104 -34.448399 23.754299 28 28 28 0.910177 0.365021 0.195798
-69.940201 -32.061901 14.478200 28 28 28 0.303058 0.951426 -0.054271
-69.456001 -32.158401 17.686399 20 20 20 0.386199 0.921217 0.047005
-69.836800 -32.015800 17.882200 26 26 26 0.349196 0.936641 -0.027669
-68.225899 -32.531700 23.703501 28 28 28 0.574565 0.552172 0.604137
-69.155800 -32.232601 23.856199 27 27 27 0.062719 -0.024955 -0.997719
-69.726402 -16.045401 2.720720 220 220 220 0.230509 0.938801 0.255963
-66.803703 -41.467602 17.776501 20 20 20 0.949796 -0.312566 0.013807
-66.843102 -41.493500 20.932501 24 24 24 0.952168 -0.305198 0.015189
-66.920700 -41.543098 23.624001 17 17 17 0.950429 -0.310381 0.018653
-66.968803 -41.687099 24.018700 22 22 22 0.930448 -0.309334 0.196415
-66.347900 -40.264400 15.016300 27 27 27 0.952775 -0.303151 0.017873
-66.526703 -40.604301 17.783001 18 18 18 0.949770 -0.312478 0.017182
-66.531601 -40.493999 20.866800 25 25 25 0.950937 -0.308917 0.017018
-66.050697 -38.848900 23.983101 24 24 24 0.951699 -0.306565 0.016931
-65.987000 -38.699902 24.230200 18 18 18 0.952397 -0.304699 0.009973
-67.552498 -34.961102 14.920500 28 28 28 0.143992 0.089547 -0.985519
-67.538696 -34.955299 18.021400 25 25 25 0.868827 0.494184 0.030365
-67.537399 -34.957401 24.084999 26 26 26 0.819531 0.462556 0.338248
-67.875900 -34.483299 14.991300 26 26 26 0.144824 0.049360 -0.988225
-67.896202 -34.389999 17.962601 26 26 26 -0.005844 -0.043911 -0.999018
-67.826599 -34.029400 20.778299 27 27 27 0.944381 0.320560 0.073388
-67.932800 -34.192299 23.965599 25 25 25 0.860572 0.480815 0.168027
-67.843201 -32.663300 14.920000 28 28 28 -0.041839 -0.107077 -0.993370
-67.958099 -32.615002 17.982901 26 26 26 0.166170 0.004963 -0.986085
-67.822098 -32.657501 23.892300 25 25 25 0.621966 0.683395 -0.382269
-66.163300 -15.571400 0.020815 5 5 5 0.018919 0.990906 -0.133217
-66.535301 -13.295700 -1.725540 13 13 13 0.034685 0.641787 0.766099
-66.385201 -13.527200 -0.047368 50 50 50 0.238708 0.474493 0.847275
-66.969803 24.405701 8.408710 24 24 24 0.038969 -0.998563 0.036779
-67.457603 24.484900 9.948660 82 82 82 -0.001076 -0.999979 -0.006361
-67.561798 24.424200 11.741400 21 21 21 0.044263 -0.999007 0.005122
-67.504601 24.500401 13.756800 67 67 67 0.006263 -0.999936 -0.009457
-67.567902 24.423800 17.663401 18 18 18 0.061303 -0.998082 -0.008586
-67.490501 24.395800 17.741199 30 30 30 0.082000 -0.996606 -0.007289
-67.610001 24.535801 20.360901 72 72 72 0.010641 -0.999931 0.004963
-67.438400 24.472900 21.777599 16 16 16 0.057175 -0.998360 0.002908
-67.741798 24.483900 23.983200 22 22 22 0.050338 -0.998435 -0.024350
-65.847801 -38.724998 15.014600 19 19 19 0.953162 -0.302458 0.001244
-65.918602 -38.768002 17.947201 20 20 20 0.953611 -0.300353 0.020356
-65.598503 -38.024300 12.622100 29 29 29 0.951243 -0.308102 0.014472
-65.795998 -38.472900 14.836600 16 16 16 0.950741 -0.309363 -0.019622
-65.839500 -38.389301 17.712099 13 13 13 0.953892 -0.299444 0.020571
-65.848198 -38.504700 17.752600 12 12 12 0.953173 -0.301810 0.019267
-65.905098 -38.539398 20.930500 23 23 23 0.951195 -0.304445 -0.050415
-65.727798 -37.883999 23.563499 25 25 25 0.952477 -0.304232 0.015162
-65.943901 -38.563499 23.861700 20 20 20 0.952970 -0.302773 0.013270
-65.770401 -35.521198 14.989800 32 32 32 -0.050176 -0.024746 -0.998434
-65.768402 -35.521400 17.839800 28 28 28 0.409167 0.215519 0.886642
-65.301903 -36.659199 20.692699 20 20 20 0.952065 -0.305269 0.019599
-64.985497 -19.054399 -1.064490 14 14 14 0.435706 -0.416757 0.797793
-65.734703 -15.558200 0.039786 8 8 8 0.037665 0.958285 -0.283320
-64.041603 -15.839800 2.103970 4 4 4 -0.068912 0.984351 0.162188
-64.284798 6.247320 -1.733940 255 255 255 0.542355 -0.761185 0.355596
-65.284203 10.515800 0.390059 121 121 121 0.027735 -0.998379 -0.049693
-64.218399 24.510300 4.200670 29 29 29 0.075170 -0.994378 -0.074574
-65.833099 24.363800 8.012930 30 30 30 0.069573 -0.992673 0.098792
-65.475197 24.514500 10.688100 31 31 31 0.057437 -0.998346 0.002686
-65.933296 24.494400 11.790600 21 21 21 0.058362 -0.998157 0.016640
-65.798500 24.539700 14.029800 34 34 34 0.045180 -0.997692 -0.050682
-65.851097 24.557699 17.376900 32 32 32 0.056199 -0.996299 -0.065042
-65.854202 24.462700 17.768000 34 34 34 0.052194 -0.979239 -0.195875
-65.843399 24.553200 20.884001 35 35 35 0.049868 -0.998744 -0.004837
-65.830597 24.548201 21.745001 15 15 15 0.040054 -0.999173 -0.006965
-65.857597 24.556999 24.293800 35 35 35 0.047326 -0.993572 -0.102837
-63.966599 -19.985100 -1.015490 9 9 9 0.123659 -0.180273 0.975813
-62.980099 -15.746400 -0.742990 255 255 255 -0.058123 0.964589 -0.257273
-63.925098 -15.472000 -0.048051 7 7 7 0.004329 0.999987 0.002765
-63.016998 -15.756500 2.028720 14 14 14 -0.074357 0.984132 0.161108
-63.924702 10.545100 -0.816826 97 97 97 0.043382 -0.999027 -0.007891
-63.927898 10.545500 -0.246832 95 95 95 0.042083 -0.998852 -0.022898
-62.025501 24.837000 2.807670 16 16 16 0.081608 -0.988575 -0.126723
-63.833401 24.543800 4.140610 33 33 33 0.075903 -0.994263 -0.075371
-63.691200 24.577999 7.651690 81 81 81 0.029371 -0.998867 -0.037434
-63.954498 24.499399 8.245200 26 26 26 0.053121 -0.998580 -0.004146
-63.854900 24.549700 10.929500 32 32 32 0.041304 -0.999124 -0.006726
-63.537899 24.608299 11.986000 33 33 33 0.051925 -0.998638 0.005137
-63.860298 24.550301 14.394000 38 38 38 0.042227 -0.998954 0.017539
-63.744202 24.594801 17.061701 23 23 23 0.043467 -0.998633 0.029032
-63.907799 24.567301 17.763800 38 38 38 0.047840 -0.985079 -0.165319
-63.784901 24.609200 20.301500 19 19 19 0.041482 -0.998335 0.040074
-63.788601 24.701300 21.796600 28 28 28 0.040505 -0.998530 0.036023
-63.843102 24.629900 23.733500 19 19 19 0.045611 -0.998466 0.031400
-60.687302 -47.817299 1.210780 255 255 255 -0.120417 0.989248 -0.082995
-61.559299 -38.528599 6.848380 50 50 50 0.751166 -0.657438 0.059373
-61.464699 -38.149899 7.756280 38 38 38 0.710398 -0.703147 0.030315
-61.334999 -37.747200 9.769770 3 3 3 0.679773 -0.730057 0.070184
-60.064899 -22.048800 -0.945418 21 21 21 0.494712 0.060460 -0.866951
-61.903500 -15.724600 -1.794990 31 31 31 -0.053135 0.984994 -0.164204
-61.851101 -15.380700 -0.028542 12 12 12 -0.060690 0.993333 -0.098016
-61.957500 -15.657600 2.038080 175 175 175 -0.065687 0.987864 0.140745
-61.496201 6.757290 -3.245740 11 11 11 0.807784 -0.097604 0.581341
-61.548500 7.155740 -2.255920 28 28 28 0.613494 -0.774230 -0.155542
-61.601700 7.555240 -4.148470 30 30 30 0.972504 -0.226106 -0.055779
-61.597698 7.709740 -2.232770 24 24 24 0.986574 -0.145022 0.075102
-60.970699 10.293900 -2.778570 13 13 13 0.181251 -0.952089 0.246321
-61.221001 10.732800 -2.026310 58 58 58 -0.097610 -0.991548 0.085474
-61.838501 10.598300 1.085730 15 15 15 0.051795 -0.995852 -0.074806
-61.961800 24.993200 2.773990 20 20 20 0.046768 -0.974688 -0.218622
-61.904400 24.699900 3.999580 34 34 34 0.065280 -0.991330 -0.114029
-61.866299 24.683399 7.368150 38 38 38 0.057093 -0.992608 -0.107100
-61.876701 24.599100 7.725950 39 39 39 0.057989 -0.995686 -0.072428
-61.958302 24.719000 10.708800 41 41 41 0.051981 -0.998359 -0.024034
-61.457001 24.785999 12.205100 10 10 10 0.021635 -0.999480 0.023899
-61.812199 24.747400 14.038600 38 38 38 0.047821 -0.995986 -0.075659
-61.856098 24.763700 17.405199 39 39 39 0.049400 -0.984489 -0.168345
-61.860100 24.676800 17.780500 37 37 37 0.050329 -0.988805 -0.140472
-61.743401 24.806000 20.708700 39 39 39 0.038222 -0.996483 -0.074571
-61.930099 24.791100 22.069000 16 16 16 0.059297 -0.997849 0.027936
-61.948200 24.797400 24.138500 35 35 35 0.053726 -0.989066 -0.137340
-59.012600 -59.476700 30.113001 47 47 47 0.466501 0.278268 0.839609
-58.741299 -47.366901 1.388850 8 8 8 -0.068676 0.989008 -0.130942
-59.853298 -36.730301 6.295250 50 50 50 0.705965 -0.687846 0.168766
-59.875500 -36.744400 7.724180 51 51 51 0.927259 -0.374338 -0.007886
-59.812199 -36.603600 6.261740 49 49 49 0.718547 -0.680310 0.144458
-59.794201 -36.491699 7.742130 45 45 45 0.953960 -0.295933 -0.048824
-59.645302 -36.604099 9.746400 14 14 14 0.932606 -0.332420 -0.140507
-59.196400 -34.711102 8.335970 17 17 17 0.946394 -0.311179 -0.086639
-59.021301 -34.609001 9.798560 18 18 18 0.947150 -0.304748 -0.100181
-57.971600 -31.307699 9.714540 20 20 20 0.933639 -0.308757 -0.181623
-58.031898 -32.001701 10.342100 6 6 6 0.929489 -0.291324 -0.226231
-59.807098 -22.126101 -0.982322 19 19 19 0.517871 0.065711 -0.852931
-59.372299 -15.559000 -1.464430 205 205 205 -0.039383 0.983481 -0.176677
-59.856400 -15.284500 -0.089776 13 13 13 -0.048506 0.991748 -0.118675
-59.428600 -15.496700 2.453280 165 165 165 -0.057270 0.992454 0.108417
-58.188099 -11.097900 8.392300 255 255 255 0.094090 0.090157 -0.991473
-58.218102 -10.499400 8.390490 240 240 240 0.118410 0.108122 -0.987061
-58.352901 -8.491270 8.405150 185 185 185 -0.060911 -0.078551 -0.995048
-59.878300 10.342200 -4.090460 14 14 14 0.048380 -0.998815 0.005219
-59.965302 10.667300 -2.023950 18 18 18 0.035383 -0.972733 0.229215
-59.908100 10.734500 0.408730 92 92 92 0.024598 -0.999180 -0.032150
-59.911598 24.692101 4.941920 34 34 34 0.013242 -0.999578 0.025862
-59.932800 24.788401 7.391000 37 37 37 0.052188 -0.993774 -0.098435
-59.944901 24.704599 7.737530 37 37 37 0.027756 -0.996596 -0.077633
-59.951698 24.794800 10.800000 36 36 36 0.048996 -0.986412 -0.156815
-59.941200 24.789000 14.260700 40 40 40 0.047102 -0.996220 -0.072986
-59.938301 24.786301 17.716101 38 38 38 0.050855 -0.991380 -0.120748
-59.901901 24.771200 17.795099 38 38 38 0.058200 -0.987817 -0.144328
-59.752701 24.796301 20.386101 18 18 18 0.021634 -0.999571 0.019725
-59.248199 24.848801 21.791700 19 19 19 0.044675 -0.998460 -0.032896
-59.798302 24.813400 23.759100 11 11 11 0.040206 -0.998092 0.046867
-57.308300 -59.529800 29.677999 14 14 14 0.387176 0.487690 0.782466
-57.310699 -59.532398 29.793600 16 16 16 0.387191 0.494391 0.778242
-57.917702 -47.307400 1.101420 255 255 255 -0.069635 0.996889 -0.036915
-57.834099 -30.857100 9.671560 18 18 18 0.933097 -0.308540 -0.184749
-57.954700 -31.486601 10.104200 16 16 16 0.937262 -0.304537 -0.169697
-57.688801 -28.759399 4.484350 20 20 20 0.948001 -0.302497 -0.098941
-57.766102 -30.635900 9.689360 17 17 17 0.933419 -0.309156 -0.182077
-57.721802 -30.519300 9.740460 20 20 20 0.933721 -0.311079 -0.177186
-57.640999 -28.554001 4.359280 18 18 18 0.947576 -0.304524 -0.096768
-57.298599 -28.476601 7.925590 76 76 76 0.937175 -0.314222 -0.151550
-57.085499 -28.548700 9.743060 20 20 20 0.946043 -0.308063 -0.100499
-57.125099 -25.661501 -0.889906 7 7 7 0.841100 0.534287 -0.084187
-56.576900 -25.074200 2.468100 19 19 19 0.951947 -0.304386 -0.033862
-56.980301 -26.551600 4.454610 21 21 21 0.949161 -0.304241 -0.080818
-56.670700 -26.235500 6.439730 8 8 8 0.953511 -0.287144 -0.091463
-56.673698 -26.582899 7.963600 30 30 30 0.935187 -0.327436 -0.134950
-56.481300 -26.668600 9.749580 20 20 20 0.948419 -0.303455 -0.091737
-56.471001 -24.688900 2.615150 25 25 25 0.950745 -0.306607 -0.045551
-56.997299 -22.732901 5.376530 16 16 16 0.408136 0.903017 0.134113
-56.967800 -23.137100 7.347670 7 7 7 0.618259 0.782424 0.074624
-56.928699 -22.955999 7.769780 14 14 14 0.340646 0.939829 0.026129
-57.269100 -22.676201 5.669920 5 5 5 0.375053 0.924751 0.064583
-57.268002 -22.675800 5.745920 4 4 4 0.403898 0.911619 0.076264
-57.663601 -15.576600 -1.314360 3 3 3 0.109096 0.977930 -0.178190
-57.948700 -15.186600 -0.000480 12 12 12 -0.053475 0.998475 -0.013716
-57.747002 -15.523500 2.270090 6 6 6 0.037066 0.988672 0.145444
-56.504200 7.866940 -4.040250 15 15 15 0.203118 0.200112 -0.958487
-57.822701 10.437900 -3.984980 14 14 14 0.046441 -0.998892 0.007597
-57.928600 10.830600 -2.080690 1 1 1 0.003668 -0.967619 0.252389
-57.797798 10.805000 1.174610 16 16 16 0.047492 -0.997009 -0.060972
-57.544498 13.099000 0.401898 3 3 3 0.845026 -0.097409 -0.525777
-57.528400 13.322600 0.428110 7 7 7 0.783895 -0.073281 -0.616553
-57.923302 24.813900 5.070630 17 17 17 0.083999 -0.995204 0.050136
-57.958698 24.915701 7.295760 49 49 49 0.042645 -0.988991 -0.141700
-57.889801 24.798599 7.786800 41 41 41 0.036934 -0.998988 -0.025681
-57.913601 24.807501 11.189100 38 38 38 0.048542 -0.980525 -0.190302
-57.819302 24.939199 14.103200 40 40 40 0.054874 -0.982895 -0.175804
-57.862099 24.956100 17.477900 40 40 40 0.048735 -0.987787 -0.147995
-57.908100 24.889601 17.757700 42 42 42 0.055942 -0.986831 -0.151774
-57.746201 24.990299 20.798901 42 42 42 0.051907 -0.991795 -0.116829
-57.030399 25.024599 21.986900 36 36 36 0.030888 -0.999215 0.024808
-57.823399 25.021900 24.123699 35 35 35 0.049187 -0.980171 -0.191954
-55.805801 -47.243801 1.026360 21 21 21 -0.069998 0.982932 -0.170133
-55.733898 -47.182999 1.759470 17 17 17 -0.086364 0.996264 -0.000136
-55.961800 -24.974800 9.480780 20 20 20 0.946664 -0.309433 -0.089882
-55.963501 -25.060200 9.739010 22 22 22 0.944370 -0.313795 -0.098481
-55.961300 -23.469000 4.804370 22 22 22 0.635758 -0.161555 0.754792
-55.962502 -24.217600 7.158610 18 18 18 0.945428 -0.312117 -0.093535
-55.939602 -24.710199 8.775660 21 21 21 0.946001 -0.306439 -0.105722
-55.796299 -24.563999 9.745600 21 21 21 0.941570 -0.315744 -0.117268
-55.528000 -21.582001 2.754770 38 38 38 0.943848 -0.321689 -0.075283
-55.744400 -22.639299 4.366110 22 22 22 0.759572 -0.248609 0.601036
-55.405102 -22.664801 7.957750 36 36 36 0.943852 -0.301980 -0.133984
-55.165501 -22.567499 9.760520 23 23 23 0.948542 -0.301516 -0.096725
-55.004101 -20.191500 0.607053 20 20 20 0.911497 -0.410823 0.019931
-55.244499 -20.676201 2.703450 26 26 26 0.948256 -0.310485 -0.066404
-54.740799 -19.630699 4.668500 17 17 17 0.950334 -0.303885 -0.067227
-54.752499 -20.570999 7.960510 35 35 35 0.942356 -0.293274 -0.161109
-54.517399 -20.561399 9.744640 23 23 23 0.946868 -0.304355 -0.103970
-54.807999 -16.745600 -1.679100 11 11 11 0.920408 0.042208 -0.388674
-54.157799 -18.503201 0.573161 75 75 75 0.970132 -0.225569 0.089233
-54.592400 -18.652500 2.751220 43 43 43 0.970859 -0.239105 -0.016187
-54.389500 -18.507099 4.606670 25 25 25 0.971859 -0.203879 -0.117997
-54.086399 -18.633801 7.763920 17 17 17 0.948957 -0.308418 -0.066016
-55.042702 -16.214199 -1.098530 5 5 5 0.371362 0.806353 -0.460309
-54.362499 -15.274000 0.597450 3 3 3 0.902075 0.258794 -0.345379
-54.763500 -16.507299 2.297370 13 13 13 0.843885 0.337296 0.417241
-54.807400 -16.445700 3.796580 18 18 18 0.728539 -0.065585 -0.681857
-54.816799 -16.449200 5.823590 19 19 19 -0.173444 0.964041 -0.201350
-55.797100 -11.223900 -0.284780 168 168 168 0.189802 0.100837 0.976631
-55.774101 -11.292200 -0.197124 255 255 255 0.200518 0.079205 0.976483
-55.200100 5.995830 -2.823820 21 21 21 0.291126 -0.066483 -0.954372
-55.923599 10.529700 -3.965440 12 12 12 0.050299 -0.998679 0.010516
-55.844799 10.879500 -2.042750 73 73 73 0.064368 -0.953785 0.293514
-55.840801 11.021400 -0.218624 143 143 143 0.055216 -0.997963 -0.031955
-55.916302 24.959900 5.322560 33 33 33 0.033156 -0.996002 0.082944
-55.843700 25.012600 7.321850 39 39 39 0.039696 -0.992766 -0.113309
-55.832600 24.921700 7.723710 46 46 46 0.048879 -0.998772 -0.008045
-55.918900 25.044901 10.633500 36 36 36 0.034892 -0.991280 -0.127070
-55.414600 24.986700 11.773400 20 20 20 0.072012 -0.997264 0.016697
-55.927799 25.047501 14.079300 45 45 45 0.050605 -0.980954 -0.187531
-55.930901 25.047300 17.527500 43 43 43 0.049660 -0.982450 -0.179797
-55.833801 25.003799 17.746799 45 45 45 0.050582 -0.986719 -0.154357
-55.085800 25.000799 21.658300 24 24 24 0.048330 -0.994491 0.093015
-55.757500 25.052000 22.214800 38 38 38 0.052875 -0.998146 0.030139
-55.955898 25.055000 24.417500 41 41 41 0.051569 -0.992147 -0.113950
-55.330700 25.281900 16.294001 16 16 16 -0.057848 -0.987036 -0.149711
-54.183201 25.334299 22.944700 18 18 18 -0.010384 -0.999620 0.025518
-53.490299 -46.919201 1.385600 9 9 9 -0.076047 0.979173 -0.188247
-53.645000 -46.938099 1.726440 12 12 12 -0.039232 0.914112 -0.403559
-53.233200 -28.745899 1.944660 5 5 5 0.581578 0.268582 0.767874
-52.863701 -28.373699 1.062770 22 22 22 0.354978 -0.023983 0.934567
-53.310299 -28.526899 2.498940 19 19 19 0.496586 0.176882 0.849774
-53.966999 -18.744499 9.549070 23 23 23 0.947642 -0.302775 -0.101502
-53.888199 -18.945999 10.116800 17 17 17 0.934155 -0.305541 -0.184391
-53.805401 -18.231600 1.104530 39 39 39 0.910841 -0.331919 0.245355
-53.962502 -18.515900 8.824360 23 23 23 0.945297 -0.306950 -0.110428
-53.906898 -18.648100 9.742560 25 25 25 0.947324 -0.302595 -0.104947
-53.762299 -16.353399 0.456840 25 25 25 0.882772 0.000944 -0.469800
-53.774799 -16.506001 4.385900 25 25 25 0.922261 -0.377949 -0.081179
-53.563599 -16.441799 6.214020 12 12 12 0.933842 -0.302737 -0.190495
-53.398800 -16.464800 7.785980 24 24 24 0.943756 -0.306398 -0.124276
-52.936901 -15.381500 10.730800 13 13 13 0.960475 -0.277894 -0.016222
-52.725300 -14.673400 8.588510 22 22 22 0.941396 -0.318891 -0.109922
-52.025799 -11.419300 -2.318050 54 54 54 0.173894 0.415380 0.892872
-52.021000 -11.418300 -2.250780 85 85 85 0.175369 0.401477 0.898923
-53.883801 10.636100 -3.042450 15 15 15 -0.016468 -0.970271 0.241460
-53.386101 10.958200 -2.018470 6 6 6 0.016539 -0.958516 0.284559
-53.865601 10.985800 1.227810 19 19 19 0.034025 -0.997289 -0.065239
-52.469700 23.663200 -0.553854 37 37 37 0.805904 0.042874 -0.590492
-52.527100 24.808399 0.727799 24 24 24 0.292365 -0.907609 0.301279
-53.856499 24.939301 4.813330 25 25 25 0.091445 -0.973174 0.211118
-53.919899 25.051201 7.594100 47 47 47 0.044214 -0.992736 -0.111896
-53.851398 25.019400 7.736170 45 45 45 0.041741 -0.996413 -0.073607
-53.935398 25.057100 11.040500 45 45 45 0.037825 -0.997823 -0.054024
-53.877602 25.029900 11.725100 33 33 33 0.064526 -0.997220 -0.037257
-53.789200 25.154200 14.105000 48 48 48 0.086467 -0.996029 -0.021200
-53.816002 25.165199 17.466900 46 46 46 0.055286 -0.989162 -0.136019
-53.938801 25.055401 17.927299 47 47 47 0.049054 -0.989302 -0.137387
-53.938202 25.053400 21.408701 46 46 46 0.104851 -0.990874 0.084702
-53.856098 25.098600 21.790100 23 23 23 0.081945 -0.993235 0.082281
-53.926300 25.213600 24.132200 43 43 43 0.050228 -0.991656 -0.118724
-52.529301 25.296499 -0.181815 29 29 29 0.491328 0.808121 -0.324864
-52.467899 25.671200 2.811330 36 36 36 -0.077196 -0.961796 -0.262657
-53.734901 25.295500 6.003750 12 12 12 -0.087031 -0.983269 0.160022
-51.998100 25.280600 10.635800 27 27 27 0.050715 -0.981569 -0.184257
-52.717701 25.300301 13.506200 88 88 88 0.089342 -0.994159 -0.060543
-52.195000 25.294300 13.956500 27 27 27 0.031236 -0.994524 -0.099727
-52.697899 25.288900 17.349001 53 53 53 0.038646 -0.981960 -0.185097
-52.357101 25.287100 20.781900 48 48 48 0.056619 -0.988616 -0.139401
-53.787899 25.312201 23.968100 20 20 20 0.057836 -0.979615 -0.192376
-52.526901 31.154100 30.320101 4 4 4 0.039773 -0.999047 -0.017967
-51.430599 -47.093899 1.631990 10 10 10 0.018022 0.876235 -0.481547
-51.645000 -47.171398 1.788640 9 9 9 0.062573 0.887359 -0.456814
-50.540901 -22.934999 1.356470 10 10 10 0.492047 0.808851 0.321946
-51.327801 -22.132099 -0.996310 36 36 36 0.689015 0.592327 0.417621
-51.408600 -21.558001 -0.075757 19 19 19 0.481958 0.384453 0.787345
-51.860401 -11.519700 -2.549480 148 148 148 0.178622 0.434201 0.882929
-51.864300 -11.588500 -2.264260 138 138 138 0.184452 0.417935 0.889555
-51.955799 10.733000 -2.846870 16 16 16 0.048307 -0.964466 0.259753
-51.805401 11.177700 -1.952850 89 89 89 0.050137 -0.926873 0.372012
-51.956100 11.072400 -0.260795 23 23 23 0.077997 -0.996389 0.033547
-50.128899 11.345400 -3.446850 35 35 35 0.936077 -0.289337 0.200109
-50.480999 11.291400 -0.765957 97 97 97 0.171294 -0.984205 0.044700
-50.489300 11.293000 -0.247489 98 98 98 0.157096 -0.975358 0.154911
-50.539700 11.303600 1.770550 23 23 23 0.151302 -0.987431 -0.045681
-50.874500 18.977301 1.432910 49 49 49 0.990966 0.042490 -0.127205
-50.994598 19.095301 1.765730 49 49 49 0.993305 -0.046090 -0.105932
-50.967201 20.040001 1.491720 93 93 93 0.988437 -0.024093 -0.149709
-51.001999 19.539301 1.743560 48 48 48 0.996587 -0.049170 -0.066311
-51.126202 23.057400 -1.103680 12 12 12 0.983287 0.168960 0.067822
-51.026699 21.408001 1.140210 80 80 80 0.903925 -0.091602 -0.417766
-50.298401 21.548401 2.056680 19 19 19 0.827560 -0.182644 -0.530834
-51.891102 24.429399 0.662698 23 23 23 0.683577 -0.653467 0.325122
-51.859798 25.053900 4.667280 46 46 46 0.054594 -0.998215 -0.024199
-51.941299 25.254299 7.281120 19 19 19 0.014906 -0.982955 -0.183242
-51.857700 25.051600 8.183210 42 42 42 0.031877 -0.996934 -0.071458
-51.931198 25.248100 10.695300 43 43 43 0.059590 -0.986845 -0.150283
-51.819401 25.113199 11.730200 34 34 34 0.034854 -0.996748 -0.072658
-51.771400 25.247499 13.980600 19 19 19 0.023518 -0.997908 -0.060223
-51.741199 25.230900 17.387400 25 25 25 0.057470 -0.997020 -0.051458
-51.861801 25.211000 17.756001 50 50 50 0.054662 -0.996967 -0.055398
