ply
format ascii 1.0
element vertex 719
property float x
property float y
property float z
property uchar red
property uchar green
property uchar blue
property float nx
property float ny
property float nz
end_header
3.642320 -2.405260 4.048740 255 255 255 -0.890849 0.389918 0.233135
3.641290 -2.404360 4.224040 255 255 255 -0.961747 0.244296 0.123943
3.684810 1.193240 -1.951770 40 40 40 -0.021165 0.274799 0.961269
3.680510 -0.120054 -0.448340 2 2 2 -0.285076 -0.148705 0.946899
4.350890 -0.314082 4.007000 5 5 5 -0.866275 0.201177 -0.457269
4.581760 -0.324621 4.248020 24 24 24 -0.893488 0.429589 -0.130894
3.685080 1.546520 -1.952200 28 28 28 -0.063437 0.143702 0.987586
3.650670 3.285290 -0.296819 2 2 2 -0.700717 0.665587 0.256883
5.468300 1.587310 4.456610 2 2 2 -0.916914 0.340932 -0.207445
3.646460 3.741550 -2.003470 24 24 24 -0.014945 0.114586 0.993301
3.754620 3.554150 -1.045220 7 7 7 -0.650641 0.725541 0.224179
3.949080 4.290670 3.306240 3 3 3 0.104920 -0.173359 -0.979254
3.659840 5.676030 -2.080070 25 25 25 0.019164 0.097452 0.995056
3.646380 5.670670 -1.649940 3 3 3 0.778999 -0.623034 -0.070636
3.665900 8.223340 -2.204920 26 26 26 -0.024191 0.077192 0.996723
3.660630 9.570170 -2.310540 18 18 18 -0.034321 0.084235 0.995855
4.328100 11.443900 -1.753250 60 60 60 0.866753 -0.449033 -0.217045
3.691310 10.135100 5.157070 7 7 7 -0.039960 -0.772807 0.633381
3.691830 11.882600 -2.548150 14 14 14 -0.370826 0.278841 0.885853
4.325370 11.612200 -1.743120 182 182 182 0.873463 -0.469309 -0.129661
5.574400 13.490900 0.246026 255 255 255 -0.399086 -0.906755 0.136111
3.883880 14.538400 -2.704640 42 42 42 -0.157175 0.106753 0.981784
4.980560 13.792900 -1.780270 1 1 1 -0.915679 -0.087141 0.392351
4.882830 13.790500 0.598432 57 57 57 -0.957585 0.276307 -0.081767
3.668810 15.784800 -2.854340 30 30 30 -0.066573 0.095029 0.993246
5.324380 23.035900 -3.805290 3 3 3 -0.252517 -0.112131 0.961073
3.743570 22.584200 -3.656400 1 1 1 0.159060 0.059648 0.985465
4.785790 23.827200 -3.834760 1 1 1 -0.044492 0.008168 0.998976
5.124160 26.191700 -4.107180 3 3 3 -0.096801 -0.309562 -0.945939
4.758600 28.481600 -4.269490 1 1 1 -0.084960 -0.153390 -0.984507
4.959280 29.917200 -4.375720 0 0 0 0.067374 0.123736 0.990025
4.231610 35.754299 -4.042910 35 35 35 0.385834 -0.103421 0.916753
4.296100 35.916401 -3.775550 7 7 7 0.846997 -0.526668 0.072226
5.357330 37.562000 -4.427220 17 17 17 0.830948 -0.555487 0.030991
3.777410 47.038799 -0.194953 255 255 255 -0.296617 -0.929007 -0.221281
3.779860 47.068699 0.218782 6 6 6 -0.283957 -0.955615 -0.078535
4.012470 47.717300 -0.453560 255 255 255 -0.267345 -0.228015 -0.936235
5.177970 76.523598 -4.118070 59 59 59 -0.838312 -0.298839 -0.455992
3.729810 78.586403 -6.991840 24 24 24 -0.093521 -0.995613 -0.003004
3.698470 77.906898 -4.271210 53 53 53 -0.073905 -0.851307 -0.519436
3.702710 77.989098 -3.786300 28 28 28 -0.026988 -0.955814 -0.292731
5.560690 80.689903 -5.942290 28 28 28 0.883498 -0.445354 -0.145226
5.560540 80.687202 -5.740320 29 29 29 0.892865 -0.444137 -0.074395
3.654870 88.717102 1.251030 141 141 141 0.969732 -0.234286 0.068767
3.655200 88.700600 4.151150 95 95 95 0.965648 -0.259491 0.013697
3.655120 88.698303 4.262830 92 92 92 0.966623 -0.255430 0.019862
7.102840 -48.510300 25.790199 12 12 12 0.093724 0.282884 -0.954564
7.610590 -48.574100 31.061300 4 4 4 -0.113406 -0.542855 -0.832135
7.604320 -48.545200 33.694801 5 5 5 0.029152 0.445400 -0.894857
5.645230 -47.723999 24.159401 1 1 1 0.181539 0.983381 0.002125
5.706550 -47.721298 24.220301 2 2 2 0.163646 0.986456 0.011199
5.643210 -47.717800 26.547800 4 4 4 0.186109 0.982524 -0.003190
5.705410 -47.730999 28.216400 2 2 2 0.133602 0.990900 -0.016335
5.710530 -47.786098 30.828300 2 2 2 0.157058 0.987521 0.011625
5.887140 -47.751099 33.463001 14 14 14 0.195329 0.978708 0.063063
5.769710 -47.772900 34.877102 6 6 6 0.129651 0.991349 0.020459
5.700620 -47.731201 36.260502 7 7 7 0.133420 0.991049 0.004541
5.771430 -47.806499 38.733501 4 4 4 0.146516 0.989013 0.019649
5.700970 -47.761501 41.574402 7 7 7 0.094390 0.995421 0.015104
6.857100 -48.159901 44.196999 4 4 4 0.183293 0.982716 0.025955
5.709470 -47.857498 46.665501 3 3 3 0.180385 0.983578 -0.005937
6.459020 -47.549198 52.657902 4 4 4 0.094182 0.992637 -0.076167
6.119290 -39.392200 29.466400 5 5 5 0.083986 0.032314 -0.995943
6.113060 -37.116001 -1.065570 29 29 29 0.230541 0.066551 0.970784
5.645160 -30.020399 -1.798930 46 46 46 -0.679129 -0.021408 -0.733707
5.644970 -30.019400 -1.761320 54 54 54 -0.613170 -0.029484 -0.789400
5.649300 -28.093700 -1.992230 3 3 3 0.442032 0.239871 0.864332
5.919430 -27.981100 -1.264510 2 2 2 -0.608351 0.036599 0.792824
6.549860 -27.396400 12.672200 8 8 8 -0.466405 0.437099 0.769033
6.053310 -25.158300 -1.708330 2 2 2 0.632533 0.585839 -0.506651
6.540050 -25.222799 0.233689 20 20 20 0.520378 0.846859 -0.109712
6.623890 -25.695499 10.509200 13 13 13 0.534600 -0.114932 -0.837254
5.866790 -22.506201 -1.669110 11 11 11 -0.829478 0.495792 0.257208
7.626120 -23.215401 19.819099 2 2 2 -0.812035 0.577413 0.084819
6.638090 -23.114500 22.044701 1 1 1 -0.594461 0.612744 -0.520731
6.529410 -22.847700 23.919201 11 11 11 -0.704875 0.581463 -0.406266
7.407960 -21.251200 -1.824860 1 1 1 0.352580 0.201016 0.913936
5.837810 -22.396500 -0.757520 63 63 63 -0.893823 0.448180 -0.014673
5.769100 -20.243601 -1.758750 0 0 0 0.173812 0.236585 0.955938
5.659690 -16.847601 -0.765653 1 1 1 0.006005 0.568437 0.822705
5.882140 -17.584900 0.394684 6 6 6 -0.265292 0.960985 -0.078280
5.687630 -16.526100 7.482960 4 4 4 -0.118092 0.651502 0.749399
5.643950 -17.241600 8.280960 3 3 3 -0.345246 0.618308 0.706046
7.637130 -16.791800 12.183400 40 40 40 0.892582 0.450736 0.011607
7.610320 -16.733400 12.542900 36 36 36 0.894107 0.447698 -0.011786
7.586970 -16.744200 17.156000 17 17 17 -0.925443 -0.378884 0.001352
7.545860 -16.714399 20.111601 47 47 47 -0.918959 -0.393672 -0.023186
7.636420 -16.973200 20.631201 52 52 52 -0.918158 -0.395502 -0.023760
7.638210 -17.094700 23.661400 65 65 65 -0.918885 -0.394482 -0.005865
7.632980 -17.086300 26.116600 50 50 50 -0.918779 -0.394727 -0.006048
7.387990 -16.539101 26.242201 13 13 13 -0.919188 -0.393755 -0.007034
7.634430 -17.150000 28.891800 53 53 53 -0.918365 -0.395681 -0.006455
7.374760 -16.627701 31.719101 33 33 33 -0.919686 -0.392602 -0.006452
7.317220 -16.556499 32.621799 23 23 23 -0.921596 -0.388063 -0.008176
7.373300 -16.685400 34.487701 39 39 39 -0.920066 -0.391698 -0.007166
7.390280 -16.785200 37.259800 35 35 35 -0.919522 -0.392981 -0.006788
7.385540 -16.834700 40.136799 16 16 16 -0.918969 -0.394154 -0.011763
7.369560 -16.854500 40.332802 86 86 86 -0.921920 -0.387286 -0.008534
7.305580 -16.768600 43.110699 91 91 91 -0.920405 -0.390792 -0.011659
7.390170 -17.024799 45.850601 63 63 63 -0.919018 -0.394062 -0.010952
7.384980 -17.074900 47.879398 29 29 29 -0.919646 -0.392639 -0.009227
7.301240 -16.882900 48.601101 39 39 39 -0.918977 -0.394234 -0.007819
7.383610 -17.257601 55.559200 43 43 43 -0.920133 -0.391517 -0.008292
7.135230 -16.680201 56.254700 52 52 52 -0.938083 -0.346335 -0.007239
7.369590 -17.288300 58.336601 47 47 47 -0.920370 -0.390971 -0.007835
7.113080 -16.751499 61.820499 63 63 63 -0.920012 -0.391788 -0.008950
7.127200 -16.846701 64.591499 60 60 60 -0.919207 -0.393633 -0.010539
7.116280 -16.882500 67.353600 47 47 47 -0.918409 -0.395501 -0.010188
7.051290 -16.788900 68.746498 39 39 39 -0.919574 -0.392815 -0.008918
7.560510 -17.997900 70.817802 40 40 40 -0.918708 -0.394858 -0.007915
7.637500 -18.248199 73.608704 51 51 51 -0.919122 -0.393889 -0.008123
6.880690 -16.509899 75.674202 33 33 33 -0.918096 -0.396267 -0.008501
7.060240 -16.939400 76.357597 32 32 32 -0.917780 -0.397001 -0.008358
6.862530 -16.527901 78.471298 51 51 51 -0.917627 -0.397306 -0.010399
7.136270 -17.246901 80.547501 69 69 69 -0.919081 -0.393783 -0.014998
6.871400 -16.671900 82.638802 35 35 35 -0.984967 -0.171511 -0.020592
7.598980 -18.428900 84.694000 45 45 45 0.980404 0.120100 -0.156152
5.654310 -15.227600 -1.643360 77 77 77 -0.273650 0.952919 0.130615
5.643350 -15.259500 1.453980 50 50 50 0.201627 0.969998 -0.135833
5.793540 -15.973600 2.256670 12 12 12 -0.877629 -0.147467 -0.456093
5.661170 -15.310800 4.251860 34 34 34 -0.052404 0.998608 0.006075
5.642770 -15.875600 7.190560 3 3 3 -0.045456 0.894168 0.445417
6.874260 -14.960900 8.807340 29 29 29 -0.922835 -0.385194 0.000504
6.523750 -15.798300 12.196200 7 7 7 0.753545 0.652778 0.077787
5.644520 -15.104300 13.392400 6 6 6 -0.263048 0.964778 -0.003126
6.619410 -14.464600 15.081900 46 46 46 0.912779 0.385699 -0.134426
6.618760 -14.515800 17.865101 42 42 42 -0.949589 -0.313334 -0.010127
6.739680 -14.879100 18.640800 27 27 27 -0.923452 -0.383712 -0.001247
6.619760 -14.569200 20.636299 20 20 20 -0.920444 -0.390511 -0.016818
6.640810 -14.768100 23.681601 70 70 70 -0.936486 -0.349875 -0.024124
6.625360 -14.736300 25.510201 53 53 53 -0.918907 -0.394442 -0.005027
6.549840 -14.619400 27.085199 37 37 37 -0.921314 -0.388769 -0.006180
6.611950 -14.760000 28.896400 58 58 58 -0.919538 -0.392795 -0.012740
6.640740 -14.876600 31.682600 54 54 54 -0.920968 -0.389491 -0.010692
6.507830 -14.630700 33.837898 38 38 38 -0.920194 -0.391374 -0.008324
6.629500 -14.954900 34.709099 26 26 26 -0.949004 -0.313269 -0.035419
6.630820 -15.013000 37.501801 33 33 33 -0.951563 -0.305904 -0.030821
6.637720 -15.084000 40.132000 17 17 17 -0.955415 -0.294925 -0.014174
6.384100 -14.509700 40.317600 55 55 55 -0.914734 -0.104247 -0.390377
6.360000 -14.507200 42.994598 18 18 18 -0.984981 -0.157314 -0.071164
6.377440 -14.646400 44.479500 50 50 50 -0.968175 -0.246439 -0.043658
6.360650 -14.663100 47.927700 48 48 48 -0.989482 -0.137975 -0.043455
6.379990 -14.759800 48.659302 75 75 75 -0.967972 -0.146136 -0.204144
6.375690 -14.804300 51.418598 68 68 68 -0.987681 -0.154673 0.023740
6.483840 -15.109200 54.176800 36 36 36 -0.986389 -0.149834 0.067721
6.356540 -14.814600 54.849098 27 27 27 -0.988325 -0.141028 -0.057653
6.371930 -14.904300 57.594299 22 22 22 -0.987963 -0.146465 -0.049775
6.389330 -14.999400 59.722000 36 36 36 -0.980312 -0.099021 -0.170831
6.980530 -16.440599 61.816601 57 57 57 -0.920027 -0.391751 -0.009018
6.112950 -14.459400 63.912300 70 70 70 -0.994027 -0.106508 -0.023783
6.116380 -14.519200 65.300003 76 76 76 -0.977721 -0.153467 -0.143214
6.109440 -14.555500 67.381401 66 66 66 -0.997761 -0.058713 0.032020
6.867860 -16.354099 68.686501 3 3 3 -0.919385 -0.393264 -0.008597
6.109140 -14.610800 70.865501 63 63 63 -0.992532 -0.120069 -0.021517
6.110260 -14.668300 72.930603 53 53 53 -0.991854 -0.115112 0.054536
6.103950 -14.707100 75.005898 54 54 54 -0.993608 -0.107865 0.033290
6.128640 -14.820800 77.080101 56 56 56 -0.997966 -0.063748 0.000581
5.999910 -14.566700 79.865700 63 63 63 -0.997608 0.062654 0.029218
6.132990 -14.888200 80.564400 63 63 63 -0.998424 -0.046663 -0.031169
6.108530 -14.885200 83.344597 75 75 75 -0.997328 0.014917 -0.071509
5.752110 -12.807000 -1.717810 17 17 17 -0.449066 0.557443 0.698281
5.664250 -14.365800 1.887220 26 26 26 0.288150 0.014498 -0.957476
5.877360 -12.495200 3.980910 27 27 27 -0.252072 0.762853 -0.595411
5.878730 -12.584200 5.656390 39 39 39 -0.826285 0.556909 0.084291
6.138580 -13.140900 6.291950 22 22 22 -0.978122 -0.206756 -0.023015
5.872280 -12.616700 8.827200 37 37 37 -0.941611 0.267566 -0.204395
6.384900 -13.808800 10.458300 40 40 40 -0.963261 -0.266339 -0.034532
5.888450 -12.739400 12.566500 47 47 47 -0.747630 0.663636 0.025229
5.888120 -12.783200 15.379300 46 46 46 -0.657342 0.688340 -0.306740
5.878430 -12.808100 17.907200 46 46 46 0.528638 0.210222 -0.822404
6.334100 -13.894400 19.226299 39 39 39 -0.957312 -0.287398 -0.030924
5.888980 -12.964300 20.955900 89 89 89 -0.806329 0.537443 -0.246958
5.871830 -12.972900 23.682501 65 65 65 -0.767777 0.355322 -0.533166
5.771430 -12.752300 24.306200 51 51 51 -0.758708 0.548109 -0.352050
5.890360 -13.017100 26.314600 18 18 18 0.938679 -0.015253 -0.344456
5.866050 -13.010700 28.930901 54 54 54 0.907988 -0.032818 -0.417708
5.864960 -13.054600 30.465200 47 47 47 -0.993844 -0.110457 -0.008610
5.802630 -12.962900 33.256199 35 35 35 -0.892828 0.449869 -0.021821
5.871240 -13.160700 34.598202 21 21 21 -0.594695 0.308860 -0.742256
5.886000 -13.240600 37.306301 30 30 30 0.958051 0.016560 -0.286118
5.806250 -13.107800 38.807499 32 32 32 -0.999402 0.033533 0.008402
5.888990 -13.341700 40.296001 37 37 37 -0.705346 0.275389 -0.653182
5.722580 -12.968900 42.824299 12 12 12 -0.604052 0.769325 0.207990
5.793260 -13.266000 45.789398 22 22 22 -0.374700 0.579631 -0.723621
5.643440 -12.969900 47.252399 25 25 25 -0.577708 0.814627 0.051349
5.868630 -13.534000 48.668499 80 80 80 -0.975190 0.197540 -0.099908
5.865920 -13.626200 52.084702 28 28 28 -0.946463 0.297973 -0.124175
5.801640 -13.478300 52.779800 31 31 31 -0.884446 0.449865 -0.124006
5.733730 -12.578900 54.729198 12 12 12 -0.103033 0.956745 -0.272073
5.879420 -13.756900 56.971699 46 46 46 -0.203411 -0.032761 -0.978545
5.881360 -13.811800 59.048901 50 50 50 0.954727 -0.209039 -0.211657
5.809210 -13.693500 61.146900 69 69 69 -0.933195 0.340286 0.115553
5.882010 -13.915000 63.223900 73 73 73 -0.984038 0.168397 0.057549
5.880770 -13.962900 65.307602 82 82 82 -0.966703 0.074348 -0.244864
5.886630 -12.715500 66.536400 3 3 3 -0.343168 0.935501 -0.084100
5.870140 -14.041700 70.169701 61 61 61 0.988977 0.040904 -0.142308
5.704980 -13.699400 71.546501 57 57 57 -0.980912 0.181628 -0.069453
5.869310 -14.092300 72.242104 59 59 59 -0.999400 0.012868 -0.032167
5.860480 -14.123500 74.320297 57 57 57 -0.992910 -0.082219 -0.085849
5.881480 -14.226300 76.398598 58 58 58 -0.998105 0.056202 -0.025050
5.868870 -14.249500 79.172600 64 64 64 -0.956830 0.244060 -0.157830
5.843790 -14.242800 81.954002 66 66 66 -0.973660 0.145099 -0.175878
5.881630 -14.387500 84.036400 75 75 75 -0.966356 0.256823 -0.014094
5.663320 -12.971200 84.441399 24 24 24 -0.135879 0.990491 -0.021560
5.759140 -12.969400 87.211899 24 24 24 -0.117592 0.993060 0.001875
5.688570 -12.990500 90.004303 27 27 27 -0.118503 0.992376 0.033853
6.379580 -12.778600 90.905197 11 11 11 -0.030994 0.998722 -0.039915
6.460680 -12.901000 92.419601 17 17 17 -0.078609 0.996806 0.014119
5.865450 -10.638100 -1.699130 23 23 23 -0.009090 0.039955 0.999160
6.617390 -12.445400 1.747330 75 75 75 -0.201551 0.964823 0.168803
5.797310 -12.208700 3.865130 38 38 38 0.397683 0.846057 -0.355014
5.738150 -12.242000 5.640010 41 41 41 0.181941 0.975266 0.125517
5.780180 -12.375200 7.147670 7 7 7 -0.963865 -0.245457 -0.103517
5.720410 -12.207600 8.257410 62 62 62 0.134002 0.990050 0.042940
5.723160 -12.216300 10.255500 58 58 58 -0.004974 0.999843 -0.016997
5.708860 -12.229700 12.247700 51 51 51 -0.011275 0.999794 0.016869
5.737800 -12.253100 14.229700 48 48 48 0.177161 0.982176 0.062809
5.705050 -12.268300 16.248899 43 43 43 -0.241029 0.919784 -0.309682
5.670100 -12.275200 18.217600 38 38 38 0.162293 0.910677 -0.379906
5.722120 -12.310400 20.376801 27 27 27 -0.234291 0.915572 0.326857
5.698810 -12.303200 22.254801 31 31 31 0.194737 0.979263 0.055873
5.672400 -12.327100 24.244499 28 28 28 -0.140535 0.909498 -0.391234
5.698630 -12.346900 26.254900 24 24 24 0.556858 0.811305 -0.178027
5.654090 -12.375000 28.208599 20 20 20 0.658893 0.749708 -0.061631
5.655830 -12.381300 30.236401 18 18 18 -0.838027 -0.504797 -0.207103
5.791530 -12.389900 32.226700 15 15 15 -0.004563 0.959306 -0.282330
5.668640 -12.413800 34.250401 13 13 13 0.408063 0.897172 -0.169018
5.732070 -12.430600 36.230099 13 13 13 0.375218 0.924533 0.066705
5.718680 -12.443800 38.301998 9 9 9 -0.159628 0.966770 -0.199688
5.774970 -12.447000 40.325901 29 29 29 0.233034 0.961175 -0.147774
5.722280 -12.417100 43.082802 8 8 8 -0.069380 -0.928800 -0.364029
5.825340 -12.435300 45.806999 9 9 9 0.150819 0.163045 -0.975023
6.209220 -12.433700 46.396801 7 7 7 -0.188313 0.905754 -0.379668
6.095320 -12.442700 48.569599 13 13 13 0.296504 -0.468360 -0.832300
6.235180 -12.450900 51.319099 11 11 11 -0.156344 0.982771 0.098582
6.330670 -12.448700 54.095100 10 10 10 -0.108511 0.958134 -0.264962
6.290430 -12.409000 54.810501 1 1 1 -0.111661 0.944452 -0.309100
6.720670 -12.434100 56.857800 12 12 12 -0.097618 0.991172 -0.089713
6.831840 -12.453600 59.611500 14 14 14 -0.063770 0.976478 -0.205972
7.581370 -12.449200 60.314301 3 3 3 -0.077727 0.990072 -0.117118
7.509300 -12.437500 62.403599 13 13 13 -0.032435 0.987294 -0.155556
5.866680 -8.609350 -1.805980 28 28 28 0.036590 0.058838 0.997597
5.738890 -10.408600 -1.708560 21 21 21 -0.008698 0.037451 0.999261
5.745690 -8.409250 -1.820930 21 21 21 0.037539 0.085095 0.995665
5.872210 -6.644470 -0.409363 9 9 9 -0.194778 0.844659 0.498611
5.885310 -7.180400 12.201700 6 6 6 -0.011425 0.014515 -0.999829
5.642510 -6.271660 -1.944490 20 20 20 -0.102558 0.811333 0.575517
5.642780 -6.240700 -1.756050 15 15 15 -0.040699 0.907927 0.417149
5.758790 -6.106180 5.393700 7 7 7 0.000894 -0.299696 -0.954034
5.872480 -5.790950 8.109760 9 9 9 -0.247655 0.960226 0.128968
5.663410 -4.449810 -2.034970 24 24 24 -0.020948 -0.040476 0.998961
6.111070 -2.481300 -1.420370 5 5 5 -0.387781 -0.921558 0.018876
6.217600 -2.525200 0.253400 175 175 175 -0.443680 -0.895138 -0.043304
5.656300 -2.455230 -1.971290 29 29 29 -0.337714 -0.338434 0.878300
5.848110 -2.289190 -1.596900 10 10 10 -0.377714 -0.924684 0.047872
5.838710 -2.354120 0.257719 177 177 177 -0.385905 -0.920547 -0.060582
5.705410 1.321300 -0.854239 4 4 4 -0.215314 0.826140 0.520705
5.653200 1.405390 3.406280 11 11 11 -0.907215 0.405800 -0.110846
5.854130 1.191560 4.880680 0 0 0 -0.860919 0.426367 0.277541
5.668870 1.741670 -1.907410 23 23 23 -0.008969 0.140102 0.990096
6.506670 1.768460 -1.707520 7 7 7 -0.043349 0.336475 0.940694
5.723220 1.545680 3.438090 4 4 4 -0.905395 0.407411 -0.119480
5.644040 1.935000 4.501560 3 3 3 -0.928539 0.333671 -0.162724
5.689640 3.563160 -1.947670 25 25 25 -0.025861 0.034976 0.999053
6.887450 4.262480 3.501950 3 3 3 -0.903211 0.422209 -0.077129
6.584500 4.074070 4.786850 6 6 6 -0.932979 0.347245 0.094715
5.676150 5.987710 -2.042250 21 21 21 -0.026769 0.049542 0.998413
6.017000 6.080960 -1.777380 3 3 3 -0.196358 0.150181 0.968963
7.275080 5.598760 5.004830 13 13 13 -0.725157 0.090475 0.682614
5.688470 7.571290 -2.104870 161 161 161 -0.025141 0.049904 0.998438
5.674170 9.825080 -2.270410 18 18 18 -0.028310 0.088869 0.995641
6.081550 11.547000 -2.415080 23 23 23 -0.105708 0.048700 0.993204
7.389230 12.360300 -1.549290 24 24 24 -0.953126 0.059370 0.296692
6.024080 13.981600 -2.481200 8 8 8 0.124318 0.028812 0.991824
6.531400 16.212601 -2.749520 2 2 2 -0.110988 0.054424 0.992330
7.131530 17.575199 -2.923810 0 0 0 -0.353569 0.075036 0.932394
6.889020 19.856199 -3.234450 2 2 2 -0.253818 0.164364 0.953184
6.837910 24.718800 -1.447340 255 255 255 -0.137122 -0.989750 0.039896
6.531500 27.474300 -4.284250 0 0 0 0.135757 -0.420760 -0.896957
6.039210 31.500601 -4.555060 0 0 0 0.055504 -0.008892 0.998419
5.834760 31.952999 -4.599330 1 1 1 0.067214 -0.050590 0.996455
6.061200 33.668301 -4.733360 1 1 1 0.166797 -0.086700 0.982172
5.715560 38.021500 -4.562260 13 13 13 0.819830 -0.564035 0.098707
6.866140 39.566002 -4.643500 32 32 32 0.769431 -0.638009 0.030348
7.590090 76.457199 -5.962880 13 13 13 -0.560549 -0.750045 -0.351024
5.849920 76.447899 -4.148010 43 43 43 -0.613024 -0.354873 -0.705880
5.858800 80.616501 -6.175940 25 25 25 0.821356 -0.563856 -0.086263
5.859380 80.619904 -5.767680 39 39 39 0.835891 -0.548536 -0.019845
6.636060 83.997299 -5.355370 43 43 43 0.935535 -0.314632 0.160565
7.879500 -49.056400 25.378099 8 8 8 -0.068183 0.434811 -0.897937
7.790290 -48.512901 28.454201 6 6 6 0.103878 0.823266 -0.558071
7.836920 -48.811798 30.995701 6 6 6 -0.054920 -0.216292 -0.974783
7.687500 -48.683300 33.685902 14 14 14 0.029510 0.304985 -0.951900
7.688400 -48.698898 36.301201 11 11 11 0.151622 0.965174 0.213191
7.676460 -48.633999 38.992001 7 7 7 0.052608 0.996457 0.065621
9.219880 -48.094101 24.029900 7 7 7 0.101501 0.994803 0.008046
7.715760 -48.435299 25.851000 2 2 2 -0.033370 0.122623 -0.991892
8.759310 -47.972900 26.226200 3 3 3 -0.050878 0.739478 -0.671256
7.671230 -48.166100 28.429300 3 3 3 0.135295 0.976717 -0.166493
7.698550 -48.346600 31.061399 1 1 1 0.112246 0.906315 0.407423
7.754590 -48.309700 33.668999 2 2 2 0.073036 0.734123 -0.675077
8.460000 -48.069599 34.234200 2 2 2 0.093452 0.994666 -0.043669
8.281440 -48.126701 38.813400 5 5 5 0.105968 0.993273 -0.046687
9.107910 -48.228600 44.511101 5 5 5 -0.160066 0.986987 0.015373
8.273350 -48.107800 46.807899 9 9 9 -0.014195 0.995859 0.089801
8.289230 -48.219898 52.662399 6 6 6 -0.019442 0.990667 0.134914
9.433170 -48.324402 55.693001 3 3 3 -0.045216 0.987777 0.149174
8.834590 -26.533701 12.012000 7 7 7 -0.873968 0.195704 0.444837
8.878770 -27.123699 13.158500 4 4 4 -0.882193 0.239193 0.405613
8.804660 -27.014000 15.944600 1 1 1 -0.969511 0.241843 0.039506
8.592280 -25.577900 -0.517543 8 8 8 0.446066 0.493849 0.746417
9.159030 -25.351299 2.353450 12 12 12 -0.153567 0.935152 0.319231
8.106740 -23.928900 -1.900080 3 3 3 0.578721 0.539121 0.611907
8.084100 -23.961500 -1.542700 13 13 13 0.494316 0.492239 0.716486
8.135400 -23.555599 18.464100 18 18 18 -0.908760 0.404790 -0.101490
8.148830 -23.314199 20.996799 0 0 0 -0.888880 0.395554 -0.231146
9.290350 -20.699100 11.583300 52 52 52 -0.908568 -0.416402 -0.033372
9.375220 -20.958799 12.613100 58 58 58 0.912395 0.409249 -0.007091
9.272580 -20.732599 14.884700 21 21 21 0.883242 0.468801 -0.010481
9.266740 -20.721901 16.432899 31 31 31 0.885829 0.458672 0.070186
9.383750 -21.130501 20.852900 35 35 35 -0.977812 -0.168431 -0.124561
9.492400 -21.377001 22.240400 32 32 32 -0.992809 0.058112 -0.104656
9.230220 -20.864100 25.561199 24 24 24 0.941833 0.320031 -0.102616
9.550180 -21.662399 26.405500 52 52 52 0.930299 0.343864 -0.127677
8.973730 -20.733299 45.782001 24 24 24 -0.918919 -0.394301 -0.010702
9.108410 -21.117399 46.490601 41 41 41 -0.920809 -0.389863 -0.010857
8.557730 -18.937201 9.686660 47 47 47 -0.921313 -0.388820 -0.000689
8.566460 -18.957701 10.602000 38 38 38 -0.920326 -0.391061 -0.008398
8.373490 -18.597000 12.630000 57 57 57 -0.920579 -0.390054 -0.019821
8.378170 -18.673599 15.404400 46 46 46 -0.920114 -0.391181 -0.019190
8.197720 -18.585800 16.697599 42 42 42 -0.936117 -0.351215 -0.018219
8.387170 -18.760500 18.604799 30 30 30 -0.921106 -0.389282 -0.004787
8.958690 -20.105900 20.244600 38 38 38 -0.919740 -0.392469 -0.006878
8.260270 -18.483299 22.985500 43 43 43 -0.916111 -0.400844 -0.008032
8.539850 -19.238899 24.919100 6 6 6 -0.920638 -0.390256 -0.011210
8.529170 -19.216801 26.332300 13 13 13 -0.919705 -0.392510 -0.008890
8.268200 -18.698299 29.206900 61 61 61 -0.920483 -0.390685 -0.008669
8.251160 -18.728399 31.993999 79 79 79 -0.921512 -0.388247 -0.008973
8.129780 -18.519501 34.728802 33 33 33 -0.921386 -0.388510 -0.010392
8.772480 -20.049999 37.497501 31 31 31 -0.919647 -0.392638 -0.009165
8.062700 -18.498199 40.963299 41 41 41 -0.921293 -0.388696 -0.011548
8.371600 -19.275000 43.102100 86 86 86 -0.920488 -0.390597 -0.011674
8.342870 -19.279699 45.861801 71 71 71 -0.920050 -0.391630 -0.011554
8.034580 -18.636999 48.626301 43 43 43 -0.920274 -0.391153 -0.009795
7.935280 -18.474600 52.042999 37 37 37 -0.920061 -0.391688 -0.008261
8.627900 -20.153000 54.142899 25 25 25 -0.920354 -0.390999 -0.008295
8.308870 -19.411800 55.517399 28 28 28 -0.919693 -0.392552 -0.008223
8.621120 -20.212200 58.281200 30 30 30 -0.920022 -0.391785 -0.008033
7.844930 -18.467501 61.810398 51 51 51 -0.920180 -0.391413 -0.008060
8.033160 -18.909700 62.494999 47 47 47 -0.919442 -0.393131 -0.008658
8.322470 -19.659800 65.270500 61 61 61 -0.919312 -0.393398 -0.010174
7.870920 -18.665100 68.013496 43 43 43 -0.918793 -0.394640 -0.008866
7.993140 -19.021200 69.378304 38 38 38 -0.921045 -0.389383 -0.007559
7.860540 -18.710400 72.205704 40 40 40 -0.918083 -0.396317 -0.007474
8.089790 -19.254499 72.898903 40 40 40 -0.917868 -0.396817 -0.007405
7.867470 -18.796000 74.328102 29 29 29 -0.919053 -0.394052 -0.008012
7.921680 -18.996000 77.075798 52 52 52 -0.919625 -0.392663 -0.010247
7.925260 -17.646999 -0.703727 12 12 12 0.369037 0.927723 -0.056054
8.876480 -17.982100 1.488400 255 255 255 0.378995 0.924293 0.045223
8.919380 -17.954201 2.237500 255 255 255 0.153711 0.927562 0.340591
7.826770 -17.260700 8.855980 50 50 50 0.897139 0.428273 -0.108279
7.855620 -17.328800 12.133000 9 9 9 -0.921134 -0.389016 -0.013392
7.800800 -17.208401 12.418300 12 12 12 -0.911395 -0.411444 -0.008563
7.773190 -17.208599 14.228800 23 23 23 -0.920851 -0.389763 -0.010826
7.866460 -17.478800 17.331301 6 6 6 -0.922063 -0.386985 -0.006598
7.747190 -17.218000 20.002300 47 47 47 -0.919661 -0.392490 -0.013207
7.874700 -17.619801 21.418900 40 40 40 -0.922115 -0.386808 -0.009165
7.883350 -17.642200 23.619900 41 41 41 -0.918488 -0.395423 -0.004594
7.729090 -17.358900 26.397800 46 46 46 -0.920216 -0.391325 -0.008222
7.728600 -17.420300 29.190201 50 50 50 -0.920258 -0.391244 -0.007313
8.062590 -18.236401 30.812099 16 16 16 -0.919854 -0.392162 -0.008770
7.877510 -17.885401 34.520000 20 20 20 -0.919603 -0.392745 -0.008998
8.087630 -18.427099 37.300098 20 20 20 -0.919149 -0.393824 -0.008261
7.885980 -18.032101 40.299702 47 47 47 -0.919884 -0.392022 -0.011500
7.881680 -18.086599 43.007301 22 22 22 -0.918852 -0.394400 -0.012621
7.660000 -17.706200 45.862400 65 65 65 -0.920686 -0.390104 -0.012502
7.888710 -18.300699 49.308102 50 50 50 -0.919926 -0.391983 -0.009255
7.848110 -18.272301 52.060299 36 36 36 -0.920141 -0.391499 -0.008277
7.660640 -17.967400 57.640499 40 40 40 -0.920940 -0.389624 -0.007986
7.809940 -18.385401 61.806099 48 48 48 -0.920191 -0.391386 -0.008062
7.655080 -18.089399 65.283997 63 63 63 -0.918713 -0.394800 -0.009967
7.722110 -18.313000 67.347702 34 34 34 -0.919351 -0.393310 -0.010023
7.709620 -18.351801 71.510101 42 42 42 -0.918369 -0.395649 -0.007709
7.713680 -18.429501 73.602997 48 48 48 -0.919302 -0.393467 -0.008247
8.691860 -15.042100 -1.542820 59 59 59 0.027237 0.058496 0.997916
8.809990 -15.074200 1.506740 51 51 51 0.024578 0.997624 -0.064360
8.491640 -14.488600 2.705650 22 22 22 0.587534 0.774404 -0.234738
7.927430 -13.523400 -1.020060 1 1 1 0.263590 0.330460 -0.906265
7.697570 -13.208500 1.284470 16 16 16 0.633035 0.774101 0.005834
7.742390 -13.210200 2.546420 21 21 21 0.558674 0.829386 0.001585
7.737460 -13.719500 12.053600 1 1 1 -0.243374 0.031442 -0.969423
8.374440 -14.134600 12.407400 1 1 1 0.061939 -0.004166 -0.998071
7.644030 -12.456400 31.677299 1 1 1 -0.046410 0.974329 -0.220295
7.712540 -12.462900 34.493000 4 4 4 -0.038538 0.989706 -0.137829
7.656040 -12.481100 37.250599 5 5 5 -0.049437 0.977327 -0.205884
7.720960 -12.481500 40.006599 9 9 9 -0.047668 0.988598 -0.142834
7.702140 -12.525500 42.794998 7 7 7 -0.045188 0.984298 -0.170634
7.685840 -12.572000 45.572800 5 5 5 -0.069347 0.971276 -0.227626
9.104420 -12.507900 47.153500 28 28 28 -0.020602 0.999719 0.011743
7.650310 -12.586500 48.320900 5 5 5 -0.050595 0.971950 -0.229683
7.850560 -12.630300 51.101700 4 4 4 -0.038447 0.968814 -0.244788
7.667670 -12.655300 53.903500 5 5 5 -0.015374 0.966481 -0.256278
7.795900 -12.476400 54.749199 12 12 12 -0.041212 0.996634 -0.070874
7.712380 -12.660400 56.648701 8 8 8 -0.058931 0.981584 -0.181716
7.801150 -12.736600 59.342400 1 1 1 -0.068817 0.971231 -0.227977
7.646900 -12.521600 60.287998 10 10 10 -0.078018 0.994990 -0.062514
7.761680 -12.710600 62.215401 9 9 9 -0.066767 0.988100 -0.138567
7.789190 -12.757600 64.959198 3 3 3 -0.117193 0.992314 -0.039726
7.797120 -12.773100 67.753502 5 5 5 -0.092931 0.989449 -0.111154
7.691880 -12.567100 68.639999 9 9 9 -0.043473 0.996421 -0.072488
7.713460 -12.781300 70.504097 9 9 9 -0.085109 0.995304 -0.046115
7.727040 -12.806200 73.348297 9 9 9 -0.014099 0.997554 -0.068464
7.819810 -12.817500 76.104897 12 12 12 -0.048510 0.984833 -0.166583
7.766980 -12.733000 78.181000 7 7 7 -0.065632 0.997515 0.025622
7.752020 -12.816000 78.875099 16 16 16 -0.006872 0.995745 -0.091889
7.747390 -12.810800 81.645599 25 25 25 -0.037974 0.998335 -0.043409
7.781350 -12.725300 83.121300 8 8 8 -0.053794 0.998029 0.032321
7.669520 -12.831000 84.430702 27 27 27 -0.046858 0.998900 -0.001582
7.780420 -12.834100 87.205399 28 28 28 -0.077060 0.995341 -0.057945
7.856560 -12.742500 88.696602 8 8 8 -0.048671 0.998736 0.012580
7.870730 -12.768000 91.671898 12 12 12 -0.060045 0.998170 0.007123
8.027410 -12.770300 92.444298 16 16 16 -0.057285 0.998265 0.013604
8.383370 -11.478900 -1.648170 7 7 7 -0.585955 0.810299 0.008559
7.883120 -12.426700 3.883490 74 74 74 0.186078 0.738697 -0.647844
7.642210 -12.080700 4.243010 76 76 76 -0.012982 0.965915 -0.258534
7.658000 -12.210800 7.142610 0 0 0 -0.061675 0.997502 0.034437
7.642860 -12.188100 8.437070 3 3 3 -0.049432 0.995700 -0.078348
7.655760 -12.212700 12.196600 14 14 14 -0.037454 0.997567 -0.058792
7.647760 -12.166100 12.214700 50 50 50 -0.052439 0.998244 -0.027556
7.683990 -12.261000 15.092300 3 3 3 -0.015629 0.995477 -0.093713
7.650650 -12.312700 17.858200 0 0 0 -0.018561 0.989035 -0.146510
7.643910 -12.166600 18.210699 37 37 37 -0.046307 0.998057 -0.041678
7.642340 -12.268700 20.653099 32 32 32 -0.058678 0.991108 -0.119422
7.680110 -12.365700 23.339701 0 0 0 -0.065288 0.988581 -0.135811
7.654260 -12.223100 24.210100 31 31 31 -0.054588 0.996790 -0.058557
7.653310 -12.291800 26.334101 28 28 28 -0.057117 0.995958 -0.069324
7.673380 -12.430300 28.904400 1 1 1 -0.056316 0.969028 -0.240443
7.645030 -12.422800 31.697300 8 8 8 -0.051835 0.983354 -0.174147
7.658710 -12.306000 32.245701 12 12 12 -0.054764 0.990481 -0.126290
7.663330 -12.455000 34.473499 5 5 5 -0.038653 0.990870 -0.129159
7.698220 -12.442400 37.257401 20 20 20 -0.053582 0.987382 -0.149013
7.651240 -12.440500 40.044800 32 32 32 -0.055267 0.995126 -0.081673
7.715690 -12.370300 40.252602 33 33 33 -0.068324 0.995481 -0.065956
7.669310 -12.436500 42.838799 44 44 44 -0.051211 0.997719 -0.043980
7.646050 -12.437100 45.636600 40 40 40 -0.059721 0.997475 -0.038420
7.731600 -12.435500 46.389400 12 12 12 -0.035930 0.998064 -0.050768
7.678210 -12.455800 48.405701 38 38 38 -0.049953 0.996816 -0.062149
7.823620 -12.447700 51.244999 28 28 28 -0.057303 0.997268 -0.046606
7.756200 -12.447300 54.104500 19 19 19 -0.049728 0.995677 -0.078452
7.830380 -12.426400 54.755901 9 9 9 -0.025660 0.993569 -0.110284
7.646020 -12.411200 56.876099 11 11 11 -0.065944 0.994044 -0.086767
7.744490 -12.433400 59.635899 13 13 13 -0.108185 0.990624 -0.083424
7.744940 -12.434500 60.294102 3 3 3 -0.073204 0.990725 -0.114480
7.755600 -12.453500 62.429199 16 16 16 -0.070593 0.992413 -0.100658
8.059130 -12.447600 65.182297 14 14 14 -0.071488 0.996425 -0.045019
8.029320 -12.439200 67.942902 11 11 11 -0.049348 0.998529 -0.022456
9.418640 -12.455500 68.631401 6 6 6 -0.060370 0.996050 -0.065118
8.317370 -12.436800 70.704803 10 10 10 -0.074796 0.995790 -0.052983
9.583600 -12.448200 73.466301 16 16 16 -0.040204 0.998526 0.036463
8.797790 -12.437300 77.733101 21 21 21 -0.133026 0.986952 0.090716
9.129490 -8.971070 -0.871267 71 71 71 0.225164 0.357552 0.906343
8.212220 -8.645760 11.646000 7 7 7 0.085418 -0.047545 -0.995210
9.077260 -9.133220 12.627600 20 20 20 -0.591510 -0.084214 -0.801887
8.865580 -6.560540 -1.871190 30 30 30 0.009409 0.177441 0.984086
8.094350 -7.814950 -1.031980 10 10 10 0.307481 0.285559 0.907696
9.242110 -6.842660 5.249460 92 92 92 0.173832 0.841168 -0.512073
9.083470 -7.108940 11.604900 15 15 15 -0.220442 0.321179 -0.921005
7.673950 -5.983100 -1.944030 40 40 40 -0.030367 0.565204 0.824392
7.644440 -6.006830 -1.768180 20 20 20 0.033714 0.971047 0.236499
7.675840 -4.448190 -2.008140 24 24 24 -0.014164 -0.043482 0.998954
7.816790 -3.289140 -1.501410 1 1 1 -0.514935 -0.852636 0.088621
7.807360 -3.262540 0.350125 147 147 147 -0.431066 -0.902319 -0.001788
7.674780 -2.450180 -1.933860 20 20 20 0.019002 0.136888 0.990404
8.883280 -2.137610 -1.653440 5 5 5 -0.246105 -0.714930 0.654452
7.666690 2.686440 -1.871090 9 9 9 -0.030668 0.025150 0.999213
7.656790 3.546610 -1.893630 22 22 22 -0.029520 0.034260 0.998977
7.670440 5.546290 -1.972530 23 23 23 -0.030806 0.036652 0.998853
7.641870 7.742820 -2.064490 19 19 19 -0.028103 0.060613 0.997766
9.638160 8.714500 7.100940 16 16 16 -0.993351 -0.001783 -0.115108
7.729700 9.591650 -2.198450 43 43 43 -0.045199 0.059182 0.997223
9.527610 10.645400 5.946480 66 66 66 -0.956667 -0.181901 -0.227377
9.637870 10.823000 6.541550 5 5 5 -0.988475 -0.037453 -0.146680
7.665790 11.822900 -2.219720 20 20 20 -0.226782 -0.499000 0.836402
7.643530 11.985800 -1.393990 100 100 100 -0.940137 0.045467 0.337751
7.668620 14.649000 -2.493600 6 6 6 0.201935 -0.286231 -0.936640
8.114340 13.809000 -1.528950 34 34 34 -0.873053 0.484666 -0.053645
8.122850 15.564100 -2.540550 3 3 3 -0.208693 0.137800 0.968224
8.881380 17.497700 -1.496830 69 69 69 -0.933722 -0.350866 0.071102
8.885520 17.394100 0.242673 73 73 73 -0.932863 -0.359856 -0.016420
8.888630 17.292601 3.084320 76 76 76 -0.922644 -0.385462 -0.012084
8.883960 17.282600 4.244480 72 72 72 -0.917659 -0.396554 -0.025415
7.719400 18.888399 -3.079200 3 3 3 -0.534455 0.338229 0.774570
8.424960 17.629200 -1.727150 18 18 18 -0.826661 -0.304936 0.472911
8.831140 17.560699 0.238038 67 67 67 -0.943243 -0.331981 -0.008959
8.810130 17.572100 2.240170 65 65 65 -0.952230 -0.305128 -0.012490
8.789000 17.582701 4.237980 63 63 63 -0.951527 -0.306949 -0.019447
8.297310 19.178301 9.776310 3 3 3 -0.981789 0.154503 -0.110541
7.654180 19.712000 -3.201900 2 2 2 -0.383344 0.233303 0.893654
8.848250 19.578501 -1.765240 11 11 11 -0.966602 0.255480 -0.020256
8.863980 19.677099 0.256605 9 9 9 -0.964596 0.263706 -0.003701
8.837070 19.615801 2.235100 10 10 10 -0.967262 0.253767 -0.002595
8.808760 19.551201 4.239100 10 10 10 -0.972780 0.231539 -0.009418
8.433170 19.832100 10.074200 1 1 1 -0.973916 0.204886 -0.097516
8.980940 19.729099 10.228000 1 1 1 -0.979569 0.201095 0.002460
8.019310 23.020000 -3.620640 1 1 1 -0.295757 0.106794 0.949275
9.120180 21.917801 -0.001872 15 15 15 -0.781349 -0.531593 -0.326959
8.583800 22.019400 0.581034 170 170 170 -0.310221 -0.948169 0.068840
8.623090 22.035299 2.499570 69 69 69 -0.435907 -0.889733 -0.135504
9.431270 21.581699 4.252140 9 9 9 -0.955872 0.293758 0.003749
9.367840 24.304300 -2.728640 49 49 49 -0.220387 -0.775206 -0.592018
8.630780 23.994101 -1.490430 2 2 2 -0.289274 -0.943832 -0.159690
8.428410 23.995501 1.025150 4 4 4 -0.252930 -0.178653 -0.950847
8.941540 25.667200 -3.967210 4 4 4 0.365043 -0.326047 -0.872030
9.636860 27.775801 -4.222390 4 4 4 -0.479299 0.214720 0.850980
9.109390 30.531700 -4.553460 1 1 1 -0.123383 0.087113 0.988528
8.660740 36.429798 -5.105530 1 1 1 -0.348763 -0.216909 -0.911765
7.645250 40.423000 -4.764950 71 71 71 0.767985 -0.640385 -0.010304
8.403260 41.565800 -5.213050 4 4 4 0.779064 -0.622661 -0.073162
7.875280 76.365700 -6.572310 72 72 72 -0.549807 -0.784755 -0.286134
7.685100 76.428596 -5.745380 81 81 81 -0.556258 -0.739675 -0.378759
8.003020 87.287300 -5.961060 29 29 29 0.798609 -0.239732 0.552044
8.111000 87.255096 -5.721750 34 34 34 0.777092 -0.257037 0.574509
11.133800 -48.469700 30.598700 3 3 3 -0.058493 0.931926 -0.357899
11.195900 -48.475201 34.793098 2 2 2 -0.082138 0.976014 0.201618
11.260600 -48.507500 46.791000 9 9 9 -0.505672 0.861729 0.041458
11.202200 -48.542400 49.748699 9 9 9 -0.464713 0.884743 0.035658
10.942700 -48.537998 52.632702 5 5 5 -0.248718 0.956654 0.151498
11.025500 -48.623600 55.578499 7 7 7 -0.160636 0.967792 0.193844
11.301500 -48.720001 61.094700 5 5 5 -0.176331 0.963952 -0.199257
10.966100 -48.671501 64.358902 6 6 6 -0.348758 0.937208 -0.003015
9.848520 -48.092602 23.374201 4 4 4 0.101936 0.992571 0.066428
9.753400 -48.256199 25.326200 2 2 2 0.077392 0.994352 -0.072620
10.114700 -48.167801 26.230900 6 6 6 0.119752 0.991241 -0.055689
9.730780 -48.153198 28.396200 10 10 10 0.051344 0.998399 0.023733
9.760370 -48.305698 30.501301 2 2 2 0.138180 0.981712 -0.130950
9.667130 -48.157398 33.756599 8 8 8 0.126494 0.989802 0.065514
10.139300 -48.308701 34.693600 3 3 3 0.111005 0.992188 0.056936
10.062500 -48.250301 36.255299 8 8 8 -0.204530 0.977569 -0.050259
9.690790 -48.290600 38.812302 2 2 2 -0.241187 0.970022 -0.029777
10.281900 -48.403999 41.457802 5 5 5 -0.477923 0.874697 0.080595
9.805610 -48.258499 44.255501 7 7 7 -0.238636 0.970754 0.026259
9.747540 -48.290901 46.823399 6 6 6 -0.178013 0.981839 0.065601
9.761340 -48.369701 50.443600 4 4 4 -0.187814 0.981423 -0.039183
11.626500 -47.680401 67.703201 6 6 6 0.119172 0.991658 -0.049106
11.379400 -39.615200 33.446999 2 2 2 0.851463 0.100820 -0.514632
11.597800 -34.672699 1.237950 14 14 14 0.476221 0.155800 -0.865413
11.640500 -30.528601 1.808680 10 10 10 0.487305 0.180361 -0.854402
11.318600 -31.994699 28.871000 3 3 3 0.034084 -0.534970 -0.844183
10.856100 -28.471500 1.725210 10 10 10 -0.384901 -0.024071 0.922644
10.643600 -27.701799 0.058255 7 7 7 0.266233 0.340264 0.901854
9.872600 -27.021500 12.248900 12 12 12 0.583497 0.002187 -0.812112
10.086800 -26.266399 12.143000 5 5 5 0.385214 0.022708 -0.922548
11.588200 -23.325199 1.293310 9 9 9 -0.496401 0.778775 0.383531
10.216100 -22.910900 11.272900 7 7 7 -0.940224 -0.340399 0.010340
10.206800 -22.891300 12.221900 36 36 36 -0.942966 -0.311938 0.116234
10.221100 -22.926201 14.213100 59 59 59 -0.935349 -0.353043 0.021983
9.818370 -24.383699 19.088600 12 12 12 -0.979118 -0.130508 -0.155871
9.876390 -22.077700 12.163700 26 26 26 -0.932285 -0.360562 -0.028961
9.878470 -22.082600 12.509100 28 28 28 -0.938809 -0.344309 -0.009405
9.966790 -22.357300 14.976200 56 56 56 -0.936921 -0.349308 0.012773
10.828800 -20.885000 17.344601 17 17 17 0.308258 0.930026 -0.200069
9.674740 -21.781601 18.684299 9 9 9 -0.984463 -0.139536 -0.106597
9.924450 -22.425100 21.964899 21 21 21 0.877864 0.458397 -0.138663
9.915020 -22.404301 22.221800 37 37 37 0.886354 0.447308 -0.119547
10.333000 -20.429899 16.966000 5 5 5 0.573027 0.816788 -0.067068
10.084200 -14.960800 -1.559990 67 67 67 0.031741 0.996273 -0.080204
9.717280 -15.023500 1.506120 47 47 47 -0.060640 0.996772 0.052618
9.647610 -15.080600 2.256420 30 30 30 -0.059817 0.997525 0.036966
11.373200 -13.303000 1.750480 22 22 22 0.046613 -0.017669 -0.998757
9.858860 -13.432100 3.887960 64 64 64 0.005395 0.007442 -0.999958
9.756370 -12.553200 8.788590 10 10 10 -0.639876 0.385113 -0.665016
9.858720 -13.836000 12.169300 0 0 0 -0.015241 0.006840 -0.999860
10.908700 -14.038400 12.570900 6 6 6 -0.924345 -0.023444 0.380836
10.874500 -12.632900 15.455700 66 66 66 0.035467 -0.046951 -0.998267
11.185200 -12.929800 17.728100 34 34 34 0.267578 0.514533 -0.814652
10.841300 -12.662200 18.222000 72 72 72 0.079198 0.053927 -0.995399
10.638500 -12.490800 20.974001 62 62 62 0.398765 0.904561 -0.150851
10.639600 -12.525900 23.726101 77 77 77 0.358075 0.891440 -0.277699
10.622400 -12.539600 26.490499 78 78 78 0.374899 0.708370 -0.598049
10.629000 -12.614100 29.262199 79 79 79 0.174552 0.415893 -0.892505
10.564700 -12.508000 32.057800 81 81 81 0.247774 0.902022 -0.353503
10.564900 -12.606900 34.832100 81 81 81 0.262848 0.934205 -0.241190
10.585200 -12.567700 36.383499 23 23 23 0.107456 0.993517 -0.037102
10.803800 -12.570000 39.035400 28 28 28 -0.066206 0.996476 0.051508
10.389400 -12.497500 40.386299 77 77 77 0.062062 0.979443 -0.191934
10.384400 -12.493500 43.158001 73 73 73 -0.016492 0.999818 0.009622
10.371100 -12.542600 45.926899 73 73 73 0.020897 0.999310 0.030707
10.546000 -12.561600 47.333401 17 17 17 0.059419 0.998229 -0.002773
9.822220 -12.476900 48.358101 2 2 2 0.082010 0.996461 -0.018446
9.815430 -12.470400 51.130100 10 10 10 0.061794 0.997873 -0.020774
9.842410 -12.506600 53.892899 8 8 8 0.070383 0.996948 -0.033789
10.340000 -12.608500 54.250900 67 67 67 0.084362 0.995786 -0.035956
9.710480 -12.534200 56.678501 10 10 10 0.049398 0.998451 -0.025603
9.686490 -12.603400 59.303699 0 0 0 0.061256 0.998060 -0.011154
9.645670 -12.618200 62.204201 5 5 5 0.042346 0.999074 -0.007596
9.655910 -12.565800 62.228901 14 14 14 0.024294 0.999588 -0.015313
9.850200 -12.655000 64.955002 3 3 3 0.056258 0.996936 -0.054342
9.645600 -12.458200 66.510803 1 1 1 0.014195 0.999899 0.000508
10.315000 -12.718500 70.147102 36 36 36 0.040784 0.997734 -0.053517
9.716810 -12.618300 70.557800 17 17 17 0.035747 0.998713 -0.035979
9.773040 -12.660000 73.316498 12 12 12 0.013655 0.998149 -0.059272
9.655410 -12.707200 76.114799 11 11 11 0.031671 0.999365 -0.016340
10.035700 -12.637000 76.437401 52 52 52 0.031975 0.998308 -0.048571
9.758560 -12.711500 78.891899 12 12 12 0.019092 0.998524 -0.050845
9.709370 -12.715800 81.647102 21 21 21 0.006592 0.999839 0.016706
10.082400 -12.766900 84.040901 37 37 37 0.009473 0.999856 -0.014081
9.706950 -12.714600 84.440201 26 26 26 0.012383 0.999910 -0.005173
9.686470 -12.756300 87.225998 21 21 21 -0.012241 0.999923 -0.002089
9.676830 -12.712600 90.023499 19 19 19 -0.040856 0.998982 -0.019101
9.674120 -12.677300 91.711700 6 6 6 -0.054096 0.998533 0.002238
9.646000 -12.674100 92.441101 12 12 12 -0.052134 0.998613 0.007366
10.890600 -10.975300 1.916210 22 22 22 -0.029736 0.033320 -0.999002
9.654760 -12.418700 3.894210 71 71 71 -0.035747 0.415756 -0.908773
9.642850 -11.963300 4.249060 67 67 67 -0.064287 0.987023 -0.147146
9.661670 -11.988200 6.244280 67 67 67 -0.060102 0.997905 0.023933
9.674940 -12.037200 8.257970 13 13 13 -0.074358 0.996747 0.031082
9.670510 -12.033600 10.256000 49 49 49 -0.086490 0.995948 0.024625
9.762170 -12.056200 12.218100 33 33 33 -0.050200 0.998683 -0.010627
9.642650 -12.064400 14.249500 51 51 51 -0.142104 0.989816 -0.008382
9.648220 -12.073200 16.248899 31 31 31 -0.063783 0.997854 0.014771
9.733530 -12.057400 18.252899 33 33 33 0.016186 0.999580 -0.024025
9.726680 -12.113200 20.678400 40 40 40 0.026698 0.998531 0.047156
9.823240 -12.235600 23.353300 1 1 1 0.109813 0.993947 0.003090
9.792760 -12.231200 26.149401 10 10 10 0.063759 0.997957 0.004175
9.797300 -12.143100 26.209101 36 36 36 0.025736 0.997767 0.061632
9.853060 -12.277300 28.902201 3 3 3 0.134859 0.990334 0.032421
9.815270 -12.327000 31.683300 1 1 1 0.127350 0.987165 -0.096374
9.680600 -12.190100 32.235298 13 13 13 0.010861 0.998375 -0.055950
9.822740 -12.338600 34.490299 3 3 3 0.029198 0.995143 -0.094009
9.742940 -12.368000 37.229401 2 2 2 0.085430 0.991231 -0.100808
9.729490 -12.384800 40.053001 6 6 6 0.061162 0.997287 -0.040964
9.656180 -12.260500 40.240898 30 30 30 0.008209 0.999933 0.008223
9.750300 -12.413300 42.803001 3 3 3 0.015302 0.999153 0.038189
9.670620 -12.410400 45.585499 15 15 15 0.026956 0.999620 0.005685
9.675100 -12.320500 46.386700 13 13 13 0.020900 0.999347 -0.029481
9.651500 -12.419900 48.351101 22 22 22 0.049208 0.998760 -0.007558
9.725800 -12.420400 51.147999 30 30 30 0.055782 0.998305 -0.016566
9.749730 -12.453000 53.905102 30 30 30 0.063836 0.997517 -0.029732
9.748710 -12.357100 54.750801 11 11 11 0.024189 0.997797 -0.061775
9.863410 -12.438500 56.705101 24 24 24 0.032860 0.999065 -0.028089
9.850100 -12.423600 59.501598 19 19 19 -0.009391 0.999610 -0.026298
9.741530 -12.417000 62.349300 24 24 24 -0.029730 0.998507 -0.045825
9.645520 -12.425000 65.194397 17 17 17 -0.042079 0.998940 -0.018676
9.742230 -12.454000 67.856903 25 25 25 -0.034915 0.999128 -0.022900
11.583400 -12.417400 68.762901 13 13 13 -0.123413 0.992164 -0.019464
9.659580 -12.447000 70.732201 17 17 17 -0.016698 0.999652 -0.020420
11.582200 -12.451500 73.690804 42 42 42 -0.117967 0.993000 -0.005953
11.622000 -12.430700 74.403000 5 5 5 -0.168410 0.985536 0.018873
11.570200 -12.408500 76.482697 23 23 23 -0.170820 0.984005 -0.050544
11.495800 -12.427000 82.006104 19 19 19 -0.172005 0.983130 -0.062198
11.609300 -12.455800 84.777901 18 18 18 -0.182455 0.983170 -0.009281
11.059700 -12.454800 90.261200 7 7 7 -0.074725 0.995121 -0.064418
9.661130 -10.419800 -0.505291 9 9 9 -0.822820 0.402896 0.400801
10.631700 -9.712840 1.851780 30 30 30 0.120256 0.088752 -0.988768
10.234300 -8.895180 11.459900 25 25 25 -0.763450 -0.036841 0.644816
10.618000 -10.183400 12.637100 6 6 6 0.407804 0.024447 -0.912742
9.881830 -7.236230 -1.794010 40 40 40 -0.002839 0.067782 0.997696
9.740510 -7.227520 -1.309150 4 4 4 0.282334 0.562952 0.776771
10.699300 -6.660930 5.200040 18 18 18 0.308830 0.777134 -0.548350
11.223900 -7.307830 9.938240 36 36 36 -0.759003 0.459113 -0.461659
10.146600 -7.186160 11.251700 16 16 16 -0.772708 0.555087 -0.307897
10.116800 -7.319880 12.651900 13 13 13 -0.866780 0.431428 -0.250125
9.669320 -6.447240 -1.857350 26 26 26 0.002043 0.204080 0.978952
10.029700 -5.866340 5.239050 15 15 15 0.368441 0.929327 -0.024532
11.128500 -6.399000 9.020760 9 9 9 -0.810261 0.580098 -0.083447
10.813800 -5.792610 10.749300 0 0 0 -0.766234 0.632295 -0.114404
10.499200 -6.450500 12.692100 40 40 40 -0.771537 0.602322 -0.204791
9.650210 -4.436790 -1.986930 19 19 19 -0.030123 -0.394689 0.918321
9.776550 -4.230070 -1.502230 127 127 127 0.296713 0.890293 -0.345455
9.740390 -4.215100 0.245253 168 168 168 -0.449787 -0.893133 -0.002166
11.549100 -3.487430 12.048800 5 5 5 -0.748702 0.215700 -0.626833
11.605800 -4.416820 12.541400 10 10 10 -0.805639 0.475479 -0.353364
9.664280 -2.454450 -1.915600 20 20 20 0.112527 -0.283932 0.952219
9.641850 -2.410360 -0.685932 0 0 0 -0.313983 -0.946825 -0.070263
9.645680 2.936410 -1.834750 3 3 3 -0.017735 0.023996 0.999555
10.142000 1.686570 -0.792716 1 1 1 -0.046564 0.557170 0.829092
9.735220 3.548800 -1.848910 10 10 10 -0.021955 0.030654 0.999289
9.671620 5.560010 -1.918690 18 18 18 -0.026487 0.035487 0.999019
9.826350 7.786110 -2.000440 17 17 17 -0.032274 0.045211 0.998456
9.777690 8.773470 7.045830 19 19 19 -0.987466 -0.081909 -0.134917
9.680830 10.524500 -2.173080 28 28 28 -0.138239 -0.448840 0.882855
10.140800 11.024200 -1.702020 11 11 11 0.106418 -0.754540 0.647568
10.084400 10.989400 0.254666 12 12 12 -0.994106 0.078134 -0.075159
9.890070 10.968700 3.102210 1 1 1 -0.837728 0.545009 0.034310
9.790120 10.774700 5.394430 11 11 11 -0.914303 0.404718 -0.015942
9.734620 9.710460 7.106550 4 4 4 -0.997324 -0.000611 -0.073110
9.795740 11.578300 -2.032440 24 24 24 -0.441172 0.099424 0.891898
10.599200 11.698400 -1.362420 0 0 0 0.269187 -0.376911 0.886271
9.890370 11.658600 1.195110 15 15 15 -0.959469 -0.271265 0.076380
10.383300 11.603600 3.255860 1 1 1 -0.765524 0.641919 0.043745
10.360300 11.606900 4.240280 0 0 0 -0.788347 0.613901 -0.040424
9.677940 14.925900 -2.300340 3 3 3 -0.080213 -0.197492 0.977017
9.749760 15.202900 -1.120560 65 65 65 0.025022 -0.189858 0.981493
10.636800 15.532600 0.246314 116 116 116 -0.404133 -0.914612 -0.012704
10.581900 15.535600 2.249910 113 113 113 -0.412273 -0.911012 -0.009419
10.638900 15.491700 4.237380 102 102 102 -0.408898 -0.912553 -0.007075
9.677380 16.233999 -2.497110 27 27 27 -0.709331 -0.682072 0.177838
9.884370 16.024900 -0.561766 97 97 97 -0.671100 -0.741319 0.008367
9.883120 16.022301 0.242169 124 124 124 -0.651875 -0.758224 -0.012466
9.841040 16.041901 2.250230 110 110 110 -0.658844 -0.752261 -0.005289
9.885800 15.980300 4.233190 105 105 105 -0.653955 -0.756435 -0.012176
10.133600 20.204000 10.532400 3 3 3 -0.787287 -0.603285 0.127382
9.642510 22.148199 -3.418940 15 15 15 -0.956224 0.292093 0.017786
9.670870 22.287800 -0.096553 8 8 8 -0.922096 0.380663 -0.069529
9.657130 22.255699 0.482083 8 8 8 0.861449 -0.507140 0.026744
9.674870 22.371599 2.939170 9 9 9 -0.920779 0.384892 0.063433
9.677120 22.375601 4.253590 9 9 9 -0.955378 0.295345 0.005000
9.757470 25.033899 -3.097440 55 55 55 -0.054389 -0.138141 0.988918
10.130900 23.757401 -1.767040 10 10 10 -0.954882 0.296043 -0.023637
10.127200 23.582500 1.454720 4 4 4 0.912420 -0.404740 -0.060632
10.094700 23.749399 3.301120 9 9 9 -0.956182 0.292700 -0.006584
10.113700 23.792999 4.235280 7 7 7 -0.955555 0.294737 0.006618
9.997170 25.840700 -3.848740 100 100 100 0.383774 -0.773875 -0.503821
9.882100 25.735300 -2.547710 45 45 45 -0.073710 -0.585368 0.807410
10.736400 25.713100 -1.745540 8 8 8 -0.953497 0.301157 0.012197
10.703300 25.719400 3.547590 7 7 7 -0.955474 0.294963 0.008200
10.720700 25.760599 4.233240 6 6 6 -0.955520 0.294828 0.007607
9.776830 27.727699 -4.225340 5 5 5 -0.518863 0.228057 0.823875
11.320600 27.599600 -1.952480 8 8 8 -0.957384 0.288635 -0.010270
