ply
format ascii 1.0
element vertex 709
property float x
property float y
property float z
property uchar red
property uchar green
property uchar blue
property float nx
property float ny
property float nz
end_header
-56.585899 27.427200 40.156101 39 39 39 0.395221 -0.918580 -0.003310
-56.674500 27.382200 42.138699 41 41 41 0.396674 -0.917956 0.002489
-56.319199 27.647200 44.890900 6 6 6 0.365945 -0.930537 -0.013613
-56.682400 27.468700 47.993900 11 11 11 0.373471 -0.927638 0.002861
-56.528801 27.480499 49.123699 15 15 15 0.451434 -0.892287 -0.005592
-56.503101 27.467400 50.255299 33 33 33 0.483043 -0.875555 -0.008572
-56.593498 27.422701 52.575298 31 31 31 0.458717 -0.886516 0.060566
-56.606701 27.427601 54.906898 30 30 30 0.512565 -0.856091 -0.066218
-56.699799 27.384899 56.547401 30 30 30 0.417609 -0.907519 -0.044863
-56.691299 27.379499 58.426601 29 29 29 0.412029 -0.911170 0.000466
-56.523602 68.755798 7.683100 79 79 79 0.500867 -0.848018 0.173202
-55.990101 68.979698 7.421540 80 80 80 0.534858 -0.836483 0.119260
-55.286098 72.671501 3.940580 18 18 18 0.918030 0.384978 0.094935
-55.488899 72.744003 5.588370 17 17 17 0.916949 0.387428 0.095414
-55.745998 72.886299 7.485320 19 19 19 0.917454 0.385985 0.096403
-55.826302 73.954300 4.033780 20 20 20 0.918555 0.382657 0.099148
-56.263500 74.924301 4.373930 18 18 18 0.919248 0.381347 0.097760
-56.569401 75.727402 4.120880 14 14 14 0.919201 0.380901 0.099917
-56.504501 75.443001 4.489090 19 19 19 0.917874 0.384756 0.097320
-56.083401 86.315201 -2.708410 25 25 25 -0.278936 -0.430018 -0.858650
-52.744499 -45.567799 47.582500 27 27 27 0.994121 0.005416 0.108140
-52.943100 -45.976501 50.552399 27 27 27 0.995108 0.038620 0.090931
-53.544498 -46.386002 57.830101 18 18 18 0.995080 0.045209 0.088164
-53.743698 -46.200401 59.243198 30 30 30 0.995505 0.028810 0.090219
-53.989201 -45.365299 62.312599 26 26 26 0.995242 0.042220 0.087815
-54.430599 -46.680801 68.319801 14 14 14 0.995869 0.044276 0.079273
-52.792801 -44.349602 47.622601 26 26 26 0.995185 0.011067 0.097384
-52.916302 -43.335899 49.627399 13 13 13 0.994987 0.043339 0.090130
-53.088100 -44.369801 50.324402 13 13 13 0.992694 -0.006390 0.120489
-53.163200 -43.203201 52.153301 17 17 17 0.996441 0.041133 0.073574
-53.493000 -43.362202 55.885101 20 20 20 0.994749 0.039644 0.094360
-53.606300 -44.239899 56.363800 25 25 25 0.997307 0.017924 0.071118
-53.866402 -44.574501 59.251598 28 28 28 0.995246 0.023578 0.094494
-54.049500 -43.368999 62.422199 17 17 17 0.994914 0.045710 0.089762
-54.324799 -44.957901 65.128799 32 32 32 0.996605 0.026158 0.078060
-54.587101 -44.604698 68.082199 31 31 31 0.995570 0.024920 0.090665
-54.558998 -44.348701 68.169998 28 28 28 0.996542 0.030123 0.077440
-52.742699 -42.747002 45.965302 23 23 23 0.992914 0.050488 0.107573
-52.807999 -43.024399 48.074902 20 20 20 0.994400 0.052190 0.091894
-52.817402 -42.919399 48.135799 22 22 22 0.994044 0.053850 0.094742
-53.123699 -42.949299 50.459900 26 26 26 0.992485 0.020545 0.120628
-53.494999 -41.936600 53.462200 16 16 16 0.991424 -0.039670 0.124516
-53.897800 -41.385899 59.513199 23 23 23 0.995904 0.030786 0.085012
-54.101398 -42.195301 62.481300 20 20 20 0.994739 0.043333 0.092820
-54.496399 -41.414902 65.157501 17 17 17 0.994307 0.011989 0.105877
-54.656601 -41.430099 68.424301 15 15 15 0.996267 0.040316 0.076326
-52.920399 -40.626099 45.891899 1 1 1 0.988715 -0.108676 0.103109
-53.023701 -39.762901 47.560501 17 17 17 0.996217 0.044969 0.074362
-53.026901 -40.077202 49.326099 19 19 19 0.996147 0.029722 0.082513
-53.239899 -40.136600 51.819500 18 18 18 0.996048 0.026239 0.084851
-53.498901 -40.967400 53.523701 20 20 20 0.995977 -0.016849 0.088009
-53.733398 -40.828899 56.038799 10 10 10 0.991809 0.035165 0.122798
-53.628700 -40.536701 56.180500 16 16 16 0.994350 0.065382 0.083628
-54.013401 -40.936001 59.167000 7 7 7 0.995317 0.032912 0.090890
-54.038300 -40.744801 61.147701 13 13 13 0.994964 0.026453 0.096683
-54.252300 -40.265701 62.366001 29 29 29 0.995714 0.043674 0.081520
-54.544998 -40.381302 65.179199 25 25 25 0.994182 0.030458 0.103321
-54.692402 -41.028900 68.740601 7 7 7 0.996388 0.036665 0.076596
-53.005001 -37.573898 -4.443380 41 41 41 -0.394963 0.917787 0.040891
-52.799900 -38.873100 44.750099 25 25 25 0.997285 0.065571 0.033527
-53.096401 -38.175999 47.694901 18 18 18 0.993096 0.116768 0.011170
-52.993801 -38.202599 48.172298 18 18 18 0.998004 0.057928 -0.025134
-53.308102 -38.330399 50.716400 22 22 22 0.993985 0.074417 0.080346
-53.526402 -38.590401 53.700901 31 31 31 0.994436 0.033536 0.099866
-53.813202 -38.180401 54.737801 6 6 6 0.980128 0.062980 0.188101
-53.764301 -38.349201 56.710499 22 22 22 0.995513 0.037307 0.086958
-54.074902 -38.066601 59.542000 26 26 26 0.995017 0.054616 0.083412
-54.550999 -39.023102 65.366096 30 30 30 0.994574 0.052742 0.089666
-52.786800 -35.185902 26.121500 5 5 5 0.665319 0.743297 0.069717
-52.787300 -35.092400 26.172600 7 7 7 0.693203 0.713631 0.100996
-52.989899 -35.418999 28.734800 8 8 8 0.661088 0.743935 0.097591
-53.056000 -36.143600 31.368799 10 10 10 0.514460 0.698187 -0.497861
-53.817200 -35.103100 36.785198 6 6 6 0.767647 0.636470 0.074994
-52.776699 -37.043900 45.408501 19 19 19 0.990846 0.033130 0.130871
-53.776001 -37.046101 47.131401 6 6 6 0.881195 0.451951 0.138694
-52.875000 -33.637199 23.611601 13 13 13 0.824406 0.552638 0.122255
-52.917599 -34.988998 26.056299 2 2 2 0.694620 0.709264 0.120200
-52.829800 -35.026600 26.148899 7 7 7 0.702962 0.699155 0.130486
-53.474300 -33.178501 28.893801 9 9 9 0.966357 0.242253 0.086413
-53.500301 -34.133202 31.526800 5 5 5 0.826016 0.563359 -0.017989
-53.243198 -32.381401 12.455900 14 14 14 0.991479 -0.078008 -0.104322
-53.701599 -32.662800 17.825399 19 19 19 0.924139 -0.005342 0.382019
-54.014400 -32.667599 20.459900 5 5 5 0.908591 0.078450 0.410255
-52.777100 -29.428699 11.741000 4 4 4 0.977024 0.171783 0.126151
-53.638401 -30.982100 12.754000 10 10 10 0.973404 -0.218648 -0.068391
-52.999001 -29.994900 15.708100 6 6 6 0.976910 0.196451 0.083990
-52.991100 -30.164499 16.338200 2 2 2 0.971607 0.214767 0.099273
-53.638302 -29.121500 19.612900 5 5 5 0.977753 0.150850 0.145749
-53.523300 -29.761900 21.214701 9 9 9 0.970779 0.224248 0.085449
-54.040901 -30.679800 28.860800 14 14 14 0.969795 0.224950 0.094314
-54.591499 -29.645500 31.486300 5 5 5 0.987911 0.122950 0.094415
-54.574299 -30.806700 33.979801 5 5 5 0.972535 0.206716 0.106973
-54.570400 -30.714199 34.141800 10 10 10 0.971535 0.215500 0.098382
-53.245098 -27.197201 12.001400 8 8 8 0.982174 -0.111786 0.151124
-53.249199 -27.622900 13.558300 5 5 5 0.996913 -0.041174 0.066850
-53.488899 -27.578600 15.801400 7 7 7 0.999271 0.001998 0.038114
-53.738602 -27.451900 17.743900 3 3 3 0.999198 -0.034290 -0.020654
-53.805500 -27.829000 19.560400 4 4 4 0.989954 0.032337 0.137644
-54.015999 -28.371300 21.686701 2 2 2 0.986244 -0.014801 0.164631
-54.241699 -27.883900 24.055099 7 7 7 0.989188 0.004521 0.146584
-54.239601 -27.882900 24.142799 8 8 8 0.994656 -0.007767 0.102953
-54.496300 -28.103800 27.195000 7 7 7 0.995064 0.036279 0.092367
-54.541500 -28.651400 28.961901 10 10 10 0.978516 0.181597 0.097615
-54.713600 -28.919100 31.643499 10 10 10 0.990242 0.083177 0.111812
-53.081501 -27.030100 9.850780 6 6 6 0.985622 -0.168738 -0.008802
-53.487499 -25.151501 11.530500 5 5 5 0.857751 0.399328 0.323728
-53.541500 -25.093500 12.136000 6 6 6 0.919250 0.378764 0.107313
-53.840401 -25.074200 15.299900 5 5 5 0.936871 0.349482 -0.011619
-53.742100 -25.108700 16.176100 9 9 9 0.924021 0.379256 0.048487
-53.989700 -25.306499 18.468700 7 7 7 0.920068 0.385979 0.067039
-54.249100 -25.347799 21.033800 3 3 3 0.926295 0.375532 0.030876
-54.552502 -25.409901 23.613800 4 4 4 0.917810 0.388220 0.083129
-54.489201 -25.884100 26.366199 11 11 11 0.897937 0.259542 0.355454
-54.636299 -26.883499 31.556200 6 6 6 0.880220 0.084565 0.466971
-53.281601 -24.320999 8.014590 7 7 7 0.907260 0.412114 0.083919
-53.742500 -23.640800 9.185270 10 10 10 0.892313 0.446709 0.065033
-54.322601 -23.087799 11.574500 7 7 7 0.881280 0.387755 0.270170
-54.044300 -24.182100 14.071900 5 5 5 0.905166 0.420524 0.061918
-54.494400 -23.322100 16.058399 14 14 14 0.904755 0.400318 0.145480
-54.491699 -23.891300 17.951099 8 8 8 0.908319 0.408228 0.091143
-54.512100 -24.308500 19.175800 4 4 4 0.904292 0.393139 0.166428
-54.501801 -24.634300 20.973900 20 20 20 0.913781 0.394397 0.097236
-54.664200 -24.959101 23.712500 8 8 8 0.922833 0.380210 0.061803
-54.610199 -25.019199 24.157600 7 7 7 0.919006 0.393302 0.027209
-52.762699 -21.952700 2.421260 29 29 29 0.983304 0.178728 0.034205
-54.516602 -22.606501 11.367200 8 8 8 0.891033 0.361361 0.274732
-54.487400 -22.995199 12.792100 10 10 10 0.908411 0.403548 0.109264
-54.713100 -22.927299 15.799600 7 7 7 0.912226 0.404737 0.063497
-53.394901 -20.656000 8.096280 16 16 16 0.910616 0.036033 0.411680
-54.720699 -21.011101 8.477190 10 10 10 0.884167 0.450105 0.125119
-53.664001 -17.114700 -3.313740 51 51 51 0.564121 0.821548 -0.082620
-54.049198 -17.392799 -0.521373 130 130 130 0.091209 0.976271 0.196406
-54.136200 -17.343500 0.174581 50 50 50 0.111509 0.974659 0.193920
-53.676899 -16.972300 -3.416660 34 34 34 0.532903 0.845419 -0.035788
-54.014599 -13.341700 -2.980330 63 63 63 0.112765 0.270941 0.955968
-52.745201 -6.576860 1.374280 78 78 78 0.083781 0.931564 -0.353792
-54.593201 10.936700 3.541330 19 19 19 -0.007364 -0.999786 0.019335
-54.541500 10.782100 5.890310 10 10 10 -0.007057 -0.993638 -0.112397
-53.242298 11.015700 -2.643500 25 25 25 -0.027219 -0.999545 -0.012982
-53.411701 10.979400 1.754470 92 92 92 -0.012615 -0.999730 0.019526
-53.490501 11.065400 2.701240 106 106 106 0.056121 -0.995926 -0.070576
-53.748299 11.966500 5.723690 8 8 8 0.310772 -0.859726 0.405329
-54.165401 18.678499 18.731800 43 43 43 0.199116 -0.020639 -0.979759
-54.412899 18.612301 21.272499 32 32 32 -0.051831 0.241882 -0.968920
-54.238602 20.398399 18.918800 40 40 40 0.996247 0.043114 0.075054
-54.488300 19.947599 21.870701 41 41 41 0.996575 0.037863 0.073512
-54.247601 20.947701 18.362801 22 22 22 0.998823 0.040179 0.027177
-54.490700 21.120001 21.221800 29 29 29 0.996399 0.037549 0.076026
-54.337700 22.972000 18.468000 30 30 30 0.998580 0.045668 0.027447
-54.588200 23.076300 21.622601 41 41 41 0.995852 0.038785 0.082312
-54.620899 23.171301 22.134001 31 31 31 0.996869 0.037827 0.069440
-54.573399 28.267000 17.471500 63 63 63 0.393058 -0.919514 0.000250
-54.576599 28.268299 18.139999 62 62 62 0.391828 -0.920031 -0.003800
-54.668400 28.228100 20.134100 63 63 63 0.390919 -0.920413 0.004671
-54.634399 28.296200 22.183201 10 10 10 0.376908 -0.926090 -0.017276
-54.642300 28.299000 24.664499 21 21 21 0.375904 -0.926643 0.005287
-54.490101 28.306200 26.215500 33 33 33 0.378165 -0.925726 -0.004625
-54.688202 28.234100 28.171499 16 16 16 0.377886 -0.925825 -0.007117
-54.669701 28.223200 30.144400 50 50 50 0.422876 -0.906151 0.008123
-54.670898 28.222700 32.184200 48 48 48 0.374700 -0.927146 0.000550
-54.676998 28.224701 34.180401 49 49 49 0.356009 -0.934471 -0.004721
-54.583000 28.261499 36.161800 47 47 47 0.362000 -0.932177 -0.001464
-52.927399 28.951700 16.796101 64 64 64 0.469782 -0.878131 0.090500
-53.240398 29.120199 22.711901 44 44 44 0.683811 -0.729434 0.018123
-53.600101 28.966801 26.811899 36 36 36 0.679130 -0.732899 0.040522
-53.934502 28.968399 30.072100 33 33 33 0.798860 -0.600733 0.030705
-54.003399 29.005199 30.589899 34 34 34 0.832867 -0.553471 0.001716
-52.753601 66.003899 4.668290 17 17 17 0.915666 0.386932 0.108811
-53.269600 68.399101 0.061956 19 19 19 0.897783 0.322878 0.299560
-53.491501 68.861298 0.355456 18 18 18 0.887739 0.306703 0.343297
-53.823502 68.752197 4.062220 19 19 19 0.927265 0.374387 -0.003659
-53.740601 68.467300 4.293340 23 23 23 0.935824 0.348257 0.054317
-54.000801 70.608704 -0.017468 19 19 19 0.947866 0.279211 0.153591
-54.509800 69.630501 1.332980 85 85 85 0.884948 -0.413532 0.214145
-54.617699 69.585800 2.136970 67 67 67 0.889211 -0.444139 0.109750
-54.503502 70.346199 5.825750 19 19 19 0.950626 0.276733 0.140463
-54.706001 69.516197 6.620540 87 87 87 0.933483 -0.124716 0.336238
-54.140999 70.980301 -0.269976 23 23 23 0.941369 0.326212 0.086082
-54.497200 71.446503 1.309340 19 19 19 0.943890 0.196490 0.265450
-54.555199 70.964897 3.857280 18 18 18 0.932085 0.344681 0.111412
-54.635899 71.069901 4.198810 15 15 15 0.917346 0.386245 0.096391
-50.738201 -45.400501 25.907000 30 30 30 0.994010 0.065273 0.087655
-50.807598 -45.578999 26.678801 29 29 29 0.993338 0.056233 0.100582
-50.993900 -45.631199 28.829599 27 27 27 0.993821 0.064033 0.090661
-51.497101 -45.392399 33.762299 33 33 33 0.994687 0.031706 0.097943
-51.488800 -45.616402 34.313702 26 26 26 0.992986 0.049359 0.107437
-51.776798 -45.411098 36.431599 33 33 33 0.995087 0.015622 0.097762
-51.969200 -45.581402 39.046299 35 35 35 0.996320 0.025721 0.081755
-52.488998 -45.805901 45.286301 19 19 19 0.995100 0.027569 0.094956
-52.675400 -45.855598 47.640301 24 24 24 0.994784 0.035995 0.095440
-50.747299 -43.162300 23.368999 18 18 18 0.999537 -0.029726 0.006500
-51.068600 -43.108700 25.559601 8 8 8 0.985973 -0.158825 -0.051297
-50.790600 -44.992699 26.207399 31 31 31 0.993989 0.060714 0.091105
-51.096600 -45.035801 28.642500 24 24 24 0.992120 0.013924 0.124517
-51.675098 -43.070801 33.789001 20 20 20 0.996128 0.005505 0.087740
-52.018600 -43.358700 35.953899 6 6 6 0.989319 -0.051558 0.136343
-52.051201 -43.386002 36.195000 6 6 6 0.984904 -0.019857 0.171959
-51.968102 -44.774700 39.469002 22 22 22 0.995514 0.049901 0.080382
-52.320499 -43.833599 41.745201 25 25 25 0.997065 -0.007285 0.076218
-52.266602 -43.238602 42.166100 24 24 24 0.995605 0.038348 0.085445
-52.542801 -43.910400 44.733200 25 25 25 0.995928 0.019881 0.087929
-52.699501 -43.825802 48.111301 10 10 10 0.993207 0.055207 0.102434
-50.790798 -41.472301 21.905899 8 8 8 0.968439 0.225163 0.106900
-50.807598 -42.778000 23.204300 3 3 3 0.996527 -0.013286 -0.082206
-51.080002 -43.008499 25.516600 6 6 6 0.983675 -0.169201 -0.061279
-51.035801 -42.534599 28.004801 29 29 29 0.995542 -0.002014 0.094298
-51.096298 -42.585300 28.729500 27 27 27 0.995673 0.024803 0.089549
-51.348701 -43.012699 31.614300 27 27 27 0.994070 0.041885 0.100355
-51.513401 -42.829498 33.517399 30 30 30 0.994000 0.060992 0.090801
-51.740799 -43.020100 35.590199 12 12 12 0.995629 -0.001161 0.093389
-51.777199 -42.830002 36.461498 26 26 26 0.995981 0.032204 0.083570
-51.997700 -42.900299 38.885502 25 25 25 0.996669 0.031797 0.075099
-52.252399 -42.999901 41.770802 23 23 23 0.995689 0.035178 0.085821
-52.284100 -43.026100 42.149399 24 24 24 0.995931 0.032907 0.083900
-52.499001 -42.990700 44.577801 20 20 20 0.995212 0.039362 0.089460
-52.638401 -42.884899 46.153000 22 22 22 0.994816 0.029955 0.097182
-50.915100 -40.934700 23.070801 8 8 8 0.996091 0.076506 -0.044147
-51.048000 -40.936100 24.572001 6 6 6 0.982071 0.074476 0.173174
-51.008099 -40.381901 26.197399 33 33 33 0.999254 0.034077 0.018152
-51.326801 -40.322201 28.723801 20 20 20 0.997370 0.036472 0.062628
-51.504501 -39.939301 31.434500 30 30 30 0.998262 0.034099 0.048068
-51.764500 -40.567101 33.985401 23 23 23 0.999866 0.010997 0.012105
-51.785198 -39.747700 35.311001 28 28 28 0.995890 0.038826 0.081832
-51.991699 -39.802399 37.549000 27 27 27 0.996051 0.021053 0.086246
-52.238602 -39.474400 39.291901 32 32 32 0.993764 0.017397 0.110136
-52.516399 -39.482101 41.878502 19 19 19 0.991937 0.030786 0.122934
-52.549099 -40.129002 44.091099 21 21 21 0.992634 0.061692 0.104264
-52.670300 -40.958500 44.817402 29 29 29 0.997529 0.039570 0.058048
-52.718102 -40.259399 46.185699 23 23 23 0.994330 0.015833 0.105157
-50.751999 -38.641800 20.376499 7 7 7 0.979643 0.199040 -0.026113
-50.988899 -38.421299 22.808001 10 10 10 0.965244 0.261315 0.004250
-51.240398 -38.612400 25.592600 7 7 7 0.970433 0.180816 0.159890
-51.071999 -38.989601 26.207199 33 33 33 0.995037 0.091613 0.038826
-51.293598 -38.957401 28.907000 31 31 31 0.994648 0.044811 0.093103
-51.501499 -39.014198 31.744301 27 27 27 0.993648 0.027186 0.109203
-51.886600 -37.688400 33.957802 30 30 30 0.990261 0.072456 0.118882
-51.758099 -38.702702 34.393398 25 25 25 0.997539 0.042442 0.055805
-51.992500 -38.571999 37.024799 22 22 22 0.996133 0.048277 0.073408
-52.245300 -37.853401 39.612000 23 23 23 0.991191 0.037717 0.126959
-52.579800 -37.899899 41.899399 26 26 26 0.984636 0.087173 0.151302
-52.490002 -37.635899 42.165001 25 25 25 0.995218 0.034091 0.091537
-52.691200 -38.895199 45.095299 22 22 22 0.995121 0.024779 0.095497
-51.749298 -35.437599 16.052099 6 6 6 0.454312 0.868131 0.199876
-51.789600 -35.850498 17.811800 43 43 43 0.344725 0.937930 -0.038115
-52.047199 -35.838001 19.464500 3 3 3 0.296942 0.954154 0.037625
-52.293301 -35.142502 21.136299 7 7 7 0.646375 0.758349 0.084299
-52.352501 -35.952599 23.365299 13 13 13 0.491935 0.870120 0.029858
-52.665600 -35.779301 26.092699 6 6 6 0.604567 0.791509 0.089506
-52.668800 -35.686401 26.149401 8 8 8 0.636989 0.766553 0.081500
-52.192402 -36.230801 29.067301 17 17 17 0.695472 0.715606 0.065008
-52.323299 -36.323399 31.792900 13 13 13 0.647039 0.756951 0.091462
-51.745998 -36.604900 33.417900 27 27 27 0.997087 0.072035 0.025081
-52.295700 -36.402500 34.266800 12 12 12 0.892620 0.425988 0.147523
-52.600300 -36.518799 36.721199 12 12 12 0.868545 0.483794 0.107577
-52.245201 -36.962002 39.279400 22 22 22 0.997067 0.051064 0.057001
-52.334801 -36.928001 40.175900 25 25 25 0.993930 0.015044 0.108982
-52.245399 -33.232800 15.884400 6 6 6 0.938840 0.287276 0.189876
-52.415501 -33.618000 18.639999 5 5 5 0.894004 0.443026 0.066965
-52.113701 -32.687698 13.075600 7 7 7 0.930736 0.348046 0.112223
-52.298500 -32.897202 15.767200 10 10 10 0.949670 0.260817 0.173495
-52.556400 -30.091101 11.859800 16 16 16 0.939543 0.171748 0.296247
-52.558102 -30.180401 12.203200 16 16 16 0.968515 0.184479 0.167171
-52.531300 -25.508699 2.121410 32 32 32 0.481107 -0.863252 0.152750
-52.543098 -25.681101 2.303020 35 35 35 0.519117 -0.837059 0.172770
-52.515701 -26.404699 9.347260 17 17 17 0.939400 0.294757 0.175062
-52.540401 -26.584999 10.770600 16 16 16 0.896433 0.053360 0.439956
-51.613098 -21.321199 -2.723940 24 24 24 0.934126 0.068216 0.350365
-52.721100 -21.935400 2.349260 34 34 34 0.987327 0.116629 -0.107629
-52.562801 -20.868999 7.977780 25 25 25 0.806104 -0.115161 0.580461
-52.537998 -17.121201 -2.676210 11 11 11 -0.024401 0.999497 -0.020248
-51.948002 -17.073999 -0.139596 21 21 21 -0.101055 0.993355 0.055086
-52.690899 -17.029499 -2.509250 30 30 30 -0.053831 0.998486 -0.011287
-52.000198 -17.017099 -0.435359 10 10 10 -0.072079 0.996614 0.039558
-52.240101 -7.918240 -3.146720 60 60 60 0.980611 -0.086703 0.175743
-52.508999 -7.351700 -1.696870 28 28 28 -0.005669 0.490303 -0.871533
-52.545399 -7.022120 -0.112018 84 84 84 0.361813 0.909429 -0.205011
-52.615398 -6.827670 0.573030 71 71 71 0.361124 0.908785 -0.209045
-50.970299 29.920601 2.327440 13 13 13 0.521670 0.679700 -0.515624
-52.715599 29.179501 17.353600 50 50 50 0.483053 -0.875298 -0.022662
-51.260300 62.672401 3.981010 19 19 19 0.915711 0.401814 -0.004393
-51.240601 62.490398 4.503000 21 21 21 0.920210 0.387864 0.052677
-51.516300 64.624496 0.074640 16 16 16 0.961458 0.092602 0.258889
-52.269100 63.418999 2.052490 35 35 35 0.725556 -0.687726 -0.024537
-52.270000 63.420101 2.158460 32 32 32 0.689934 -0.721288 -0.061110
-52.238602 64.863998 4.257620 37 37 37 0.920120 0.385243 -0.070474
-52.567600 66.631599 0.292644 21 21 21 0.915141 0.402998 0.010471
-52.566700 65.770203 3.909180 20 20 20 0.931668 0.362630 0.022257
-52.497200 65.516502 4.135890 19 19 19 0.926824 0.373900 -0.034579
-52.696899 66.966499 0.154603 28 28 28 0.916563 0.398219 -0.036517
-49.590099 -45.158298 12.804600 26 26 26 0.994319 0.047473 0.095266
-49.701401 -45.144299 14.194400 33 33 33 0.991500 0.093182 0.090798
-50.030602 -45.331699 17.926500 30 30 30 0.994984 0.053799 0.084335
-50.179001 -45.355400 19.584600 31 31 31 0.994887 0.048296 0.088693
-50.245998 -45.416199 20.350800 31 31 31 0.995256 0.039863 0.088750
-50.507500 -45.424198 23.285500 30 30 30 0.994452 0.053117 0.090794
-50.718399 -45.615398 25.804100 27 27 27 0.994050 0.062741 0.089035
-49.762001 -44.519798 12.773300 9 9 9 0.998761 0.019052 0.045981
-49.997398 -44.059700 15.505000 12 12 12 0.983500 0.153866 0.095152
-50.044998 -45.005100 17.900600 34 34 34 0.994991 0.053656 0.084339
-50.064098 -44.906799 18.136000 31 31 31 0.994557 0.054454 0.088831
-50.339199 -44.927200 20.627399 33 33 33 0.995683 0.044021 0.081720
-50.551300 -45.005699 23.388901 35 35 35 0.994349 0.052204 0.092434
-49.504601 -42.420799 10.684500 16 16 16 0.993243 0.050181 0.104641
-50.524399 -41.357399 17.889099 6 6 6 0.996969 -0.074492 -0.022434
-50.277802 -42.760101 18.148100 16 16 16 0.994342 0.082542 0.066862
-50.503101 -42.953098 20.761600 17 17 17 0.997869 0.065192 0.002865
-50.726700 -42.925301 23.445700 25 25 25 0.999797 0.005303 0.019440
-50.700901 -42.358101 24.129801 29 29 29 0.997332 0.019326 0.070399
-50.016998 -39.589802 12.398400 9 9 9 0.988282 -0.011729 -0.152188
-50.078999 -39.334801 15.925300 35 35 35 0.989223 0.066283 0.130555
-50.245499 -39.366901 16.792101 7 7 7 0.994202 0.011725 0.106891
-50.275902 -40.626999 18.564199 30 30 30 0.997971 0.032673 0.054654
-50.528099 -40.936501 21.389299 20 20 20 0.981835 0.027544 0.187728
-50.723701 -40.675400 23.763100 34 34 34 0.996705 0.018369 0.079001
-49.753399 -38.877102 12.089400 38 38 38 0.976236 0.121939 0.179148
-50.080898 -38.325401 12.489700 9 9 9 0.980679 0.131902 -0.144467
-50.245602 -37.072399 15.628100 19 19 19 0.995627 0.079992 0.048245
-50.492599 -38.342098 17.287201 9 9 9 0.959279 0.254497 0.122537
-50.302101 -38.999500 18.208599 35 35 35 0.992371 0.116708 0.039743
-50.487499 -39.045300 20.341600 38 38 38 0.990215 0.108864 0.087311
-50.052200 -36.344700 13.151800 36 36 36 0.999189 0.040046 0.004130
-50.653999 -35.727600 15.837300 19 19 19 0.619523 0.675290 0.400219
-50.603298 -36.844601 17.754101 7 7 7 0.992648 -0.120939 0.004909
-50.560101 -36.619801 18.346100 18 18 18 0.993150 -0.098670 0.062591
-50.714600 -37.026199 21.027800 30 30 30 0.997619 0.065609 0.021238
-49.758801 -16.353800 -2.175580 29 29 29 -0.154678 0.985050 0.075839
-50.038898 -16.446501 -0.002077 13 13 13 -0.109270 0.985247 0.131711
-48.778301 -16.032400 0.189949 24 24 24 0.403029 0.914986 0.019185
-48.859200 -14.308700 -1.174710 5 5 5 0.956026 0.279493 0.088874
-49.414398 -6.039530 12.116200 38 38 38 0.334567 0.197168 0.921515
-49.386799 -6.036180 12.174000 34 34 34 0.343621 0.203755 0.916738
-48.738998 56.768700 4.015900 17 17 17 0.916658 0.386887 0.100286
-48.751499 56.638199 4.599920 13 13 13 0.915833 0.387031 0.107035
-49.250900 58.546299 1.706310 13 13 13 0.957058 0.266016 0.115216
-49.514000 58.705399 3.575370 13 13 13 0.925755 0.369465 0.080464
-49.506401 58.397999 4.768000 11 11 11 0.916623 0.388181 0.095486
-49.581100 59.242500 2.070220 7 7 7 0.940925 0.318376 0.115311
-50.325001 60.432598 4.030270 23 23 23 0.914199 0.396072 0.085839
-50.496101 60.792801 4.129740 40 40 40 0.917416 0.390096 0.078568
-50.589199 61.061699 4.016270 21 21 21 0.916349 0.387818 0.099507
-50.639099 61.121899 4.220260 19 19 19 0.917338 0.386568 0.095164
-49.124802 80.837196 -2.343190 85 85 85 -0.162902 -0.566838 -0.807562
-48.514500 -35.502800 -5.483960 18 18 18 0.109938 0.993927 0.004815
-48.548801 -35.623901 -2.887940 20 20 20 0.119047 0.987331 0.104905
-47.240101 -23.163401 4.876470 32 32 32 0.523685 -0.049885 0.850450
-47.631199 -22.985100 5.423490 19 19 19 0.545859 0.048236 0.836488
-47.278000 -20.935200 5.025090 34 34 34 0.572643 0.003159 0.819799
-48.313400 -15.878400 -3.266140 47 47 47 0.748975 0.658991 0.069044
-48.490002 -16.007799 -0.115922 42 42 42 0.562914 0.826487 0.006846
-48.536900 -16.023500 0.140912 38 38 38 0.456719 0.886459 -0.074824
-47.042999 -13.586200 1.224440 4 4 4 0.800554 -0.018081 -0.598987
-48.188702 -12.936900 -3.308350 38 38 38 -0.041529 0.051329 0.997818
-47.658798 -10.320800 -2.526050 59 59 59 0.143416 -0.198834 0.969483
-48.437302 -5.364550 11.653700 18 18 18 0.320484 0.234670 0.917725
-48.539700 -4.944890 11.625300 10 10 10 0.321605 0.233746 0.917569
-48.605400 -2.858610 10.621200 39 39 39 0.503050 0.864252 -0.002921
-47.188900 10.629200 8.028900 14 14 14 0.063788 -0.982528 -0.174843
-47.288101 10.465300 8.209540 20 20 20 0.091711 -0.972191 -0.215486
-47.718399 11.764200 1.978670 22 22 22 -0.009963 -0.730096 -0.683272
-47.767799 11.141200 2.747060 64 64 64 0.034604 -0.995006 -0.093623
-47.892799 11.232500 4.539140 6 6 6 0.027299 -0.989366 -0.142860
-48.448101 22.160500 2.342750 16 16 16 0.364157 -0.867724 0.338298
-46.737999 52.806801 0.675220 18 18 18 0.917207 0.384890 0.102910
-47.006599 52.707100 3.761680 16 16 16 0.916876 0.388120 0.093279
-46.998299 52.429501 4.856100 16 16 16 0.916940 0.388583 0.090693
-47.494400 54.758499 0.063188 15 15 15 0.918942 0.385382 0.083824
-47.504101 54.631802 0.718215 17 17 17 0.918439 0.384211 0.094078
-47.763401 54.513699 3.705210 18 18 18 0.918412 0.385382 0.089448
-47.992298 54.915001 4.348900 12 12 12 0.917280 0.387150 0.093335
-47.837399 55.578201 0.086967 16 16 16 0.918168 0.385960 0.089456
-48.249199 56.343601 0.975987 17 17 17 0.906708 0.356415 0.225498
-48.487099 56.187302 4.027860 15 15 15 0.916295 0.385541 0.108456
-48.495399 56.053001 4.606770 18 18 18 0.917974 0.385622 0.092837
-48.610600 80.687103 -2.294920 86 86 86 -0.126805 -0.401644 -0.906975
-45.323002 -37.664299 -5.534410 60 60 60 0.793469 0.603724 0.076970
-45.993401 -37.062401 -3.078450 22 22 22 0.751304 0.652557 0.098548
-46.368500 -36.320202 -4.828430 32 32 32 0.592669 0.805291 0.015790
-46.261700 -36.611000 -3.199240 36 36 36 0.726037 0.683896 0.071808
-44.792099 -17.070700 2.103350 116 116 116 0.717693 0.644864 -0.262805
-44.797798 -17.072800 2.163990 117 117 117 0.701243 0.654318 -0.283065
-46.650600 -16.579000 -2.953220 31 31 31 0.137498 0.988682 -0.060027
-44.745098 -16.858801 1.270850 91 91 91 0.586523 0.808442 -0.049117
-46.534100 -16.338100 2.282090 35 35 35 0.256092 0.920710 -0.294466
-44.994598 -16.183300 4.171410 36 36 36 0.943386 0.232751 0.236326
-45.005501 -15.045600 3.878520 50 50 50 0.927097 0.168043 -0.335042
-45.025002 -14.991000 4.165420 48 48 48 0.973151 0.197264 -0.118592
-46.495701 -12.856900 -3.414900 37 37 37 -0.041304 0.995980 0.079481
-46.511600 -9.098620 -2.985450 85 85 85 0.699288 -0.687693 -0.195126
-46.500900 -9.035180 -2.934710 34 34 34 0.692131 -0.691683 -0.206226
-45.095798 6.004150 1.953280 21 21 21 0.428634 -0.116800 0.895896
-46.546200 10.731400 7.931740 7 7 7 0.050127 -0.985457 -0.162362
-45.363201 11.485000 3.410540 17 17 17 0.018011 -0.994200 -0.106030
-45.146599 22.818899 -2.832450 15 15 15 0.447581 0.738844 0.503766
-45.197201 22.985300 -2.866370 12 12 12 0.452441 0.720411 0.525648
-45.138000 46.925598 2.178930 3 3 3 0.989752 0.004763 0.142717
-45.000301 48.828201 0.126730 19 19 19 0.918037 0.386043 0.090440
-45.012501 48.841499 0.208156 20 20 20 0.917910 0.385940 0.092151
-45.303501 48.663300 3.717340 19 19 19 0.917315 0.388177 0.088604
-45.495800 48.869301 4.741940 19 19 19 0.916898 0.387297 0.096436
-45.492802 49.990501 0.105643 18 18 18 0.918060 0.387446 0.083973
-45.742802 50.392399 0.942485 18 18 18 0.917272 0.386782 0.094928
-46.250401 50.821098 4.084560 18 18 18 0.918415 0.386265 0.085512
-46.238201 50.678699 4.614460 17 17 17 0.917987 0.386365 0.089563
-46.514400 52.423100 0.080916 18 18 18 0.918620 0.385128 0.088397
-46.491001 52.264599 0.454378 26 26 26 0.917352 0.386429 0.095592
-46.505600 51.488400 3.885750 18 18 18 0.917873 0.386112 0.091798
-46.499298 51.352600 4.423750 18 18 18 0.917999 0.386088 0.090632
-43.774399 -47.296001 -4.726840 13 13 13 0.492349 0.075224 -0.867141
-43.298599 -46.781799 -5.078380 10 10 10 0.747706 0.069111 -0.660424
-44.133202 -41.626301 -1.552390 21 21 21 0.653896 0.359555 0.665688
-43.021400 -40.576801 -3.076520 11 11 11 0.381165 0.322726 0.866349
-43.823700 -38.417400 -1.865130 12 12 12 0.701515 0.501219 -0.506612
-43.354500 -21.384600 -3.280110 35 35 35 0.999039 0.041966 0.012660
-44.380199 -22.175699 -0.309033 82 82 82 0.785580 -0.618261 0.024854
-44.488201 -21.672300 0.256149 42 42 42 0.865811 -0.474353 -0.159252
-44.306499 -21.724300 2.766740 12 12 12 0.684074 -0.711110 0.162376
-42.765400 -21.096800 4.146440 48 48 48 0.719328 -0.027293 -0.694135
-44.021099 -20.900999 -3.301920 66 66 66 0.769218 -0.224605 -0.598211
-43.408401 -21.011200 -1.840760 18 18 18 0.999016 0.041135 0.016588
-44.554100 -19.460600 0.129452 43 43 43 0.848399 0.223415 -0.479901
-44.266201 -20.611500 2.871700 16 16 16 0.598549 0.048754 -0.799601
-42.768002 -21.033899 4.129140 48 48 48 0.714010 -0.011322 -0.700044
-43.253502 -19.419201 8.610920 8 8 8 0.993853 0.082611 0.073705
-44.239399 -18.340401 -2.680020 47 47 47 0.768602 0.408575 0.492257
-44.534599 -18.924200 0.011778 112 112 112 0.886285 0.418512 -0.198359
-44.588699 -19.012501 0.391021 69 69 69 0.832459 0.352774 -0.427274
-44.423401 -17.636101 2.922440 20 20 20 0.672435 0.333303 -0.660864
-43.545799 -17.991199 4.462510 25 25 25 0.932277 0.001349 0.361744
-43.931499 -17.828400 8.547580 6 6 6 0.837345 0.527444 0.143725
-44.618900 -16.491600 -2.995030 33 33 33 0.597245 0.128746 0.791659
-44.508301 -17.025801 2.943780 22 22 22 0.565399 0.742092 -0.360032
-43.259701 -16.798201 4.158620 16 16 16 0.529971 0.349228 -0.772768
-44.592201 -14.967300 -3.426260 35 35 35 0.233985 0.027044 0.971864
-44.508598 -12.914500 -2.789290 87 87 87 0.234750 0.566450 -0.789953
-43.088299 -12.387700 10.468300 32 32 32 0.712296 -0.660002 0.238813
-44.488998 -7.601110 -3.333240 61 61 61 0.622328 -0.781417 0.045779
-44.505001 -8.126740 -0.482238 55 55 55 0.763609 -0.635701 -0.113071
-44.555698 -7.212380 0.149960 96 96 96 0.720656 -0.688582 0.080681
-44.598801 -7.045530 -0.574930 22 22 22 0.775140 -0.626202 0.083842
-44.560902 -6.982810 1.852830 74 74 74 0.710284 -0.696770 0.100042
-44.536999 -7.036770 2.146010 85 85 85 0.709784 -0.699604 0.082218
-43.922798 -1.865260 8.029930 47 47 47 0.513726 0.235292 0.825059
-44.337200 -2.942040 9.137380 31 31 31 0.400212 0.362526 0.841668
-43.127201 7.911830 -2.551880 36 36 36 0.245870 0.011662 0.969233
-43.909500 8.053770 2.061460 37 37 37 0.084329 -0.056843 -0.994815
-43.921101 7.998040 2.130400 31 31 31 -0.057571 -0.063137 -0.996343
-44.533901 10.917100 7.394900 5 5 5 0.049387 -0.988760 -0.141121
-43.346500 10.858100 8.131620 6 6 6 0.051272 -0.986054 -0.158329
-43.980999 11.786200 1.155780 6 6 6 0.030606 -0.995545 -0.089186
-44.705898 11.620000 2.534560 6 6 6 0.293161 0.034723 0.955432
-43.786098 10.968500 7.281300 6 6 6 0.049139 -0.989296 -0.137400
-44.684898 21.955900 -3.968060 19 19 19 0.198576 -0.085085 -0.976385
-44.701801 21.615601 -3.315850 18 18 18 0.010797 -0.211075 -0.977410
-43.403198 40.903599 7.608200 6 6 6 0.922713 0.385271 -0.012895
-43.384499 40.885899 8.140340 8 8 8 0.921582 0.388036 -0.010670
-42.749599 42.582100 3.849200 26 26 26 0.916085 0.390359 0.091694
-42.747601 42.362301 4.713360 24 24 24 0.916685 0.386828 0.100268
-44.062302 42.475300 7.875800 8 8 8 0.920575 0.390225 -0.016317
-44.241402 42.754501 9.629140 14 14 14 0.918801 0.390272 0.059096
-43.295799 44.897499 -0.327764 22 22 22 0.918040 0.385192 0.093967
-43.242802 44.617100 0.259145 48 48 48 0.918259 0.384886 0.093079
-43.745201 44.907299 4.013170 23 23 23 0.918093 0.385329 0.092878
-43.747398 44.796200 4.500250 22 22 22 0.918007 0.385901 0.091343
-44.263699 42.991798 8.037220 6 6 6 0.922764 0.385361 0.001798
-44.520901 43.569801 8.221250 8 8 8 0.920244 0.391345 -0.000166
-43.988098 46.426601 0.093933 22 22 22 0.917412 0.388432 0.086465
-44.237701 46.926998 0.542525 22 22 22 0.917691 0.387353 0.088321
-44.601101 46.249901 2.164320 45 45 45 0.874286 0.466798 0.133129
-44.497398 46.606701 4.368890 20 20 20 0.917978 0.386446 0.089309
-44.491699 47.671501 -0.107054 21 21 21 0.917467 0.388080 0.087455
-44.496300 47.554600 0.488520 22 22 22 0.917270 0.388577 0.087315
-44.648899 47.122299 3.686770 21 21 21 0.917222 0.388276 0.089140
-44.641701 46.993900 4.190120 20 20 20 0.916872 0.388990 0.089623
-41.792500 -51.402000 -4.495100 13 13 13 0.372432 0.045285 -0.926954
-40.786201 -50.942200 -4.390870 6 6 6 0.156753 0.010082 -0.987586
-41.499401 -50.006699 -3.747200 14 14 14 0.275655 -0.125187 -0.953070
-42.337601 -47.394699 -3.828900 2 2 2 0.902166 0.096344 -0.420493
-42.319901 -45.724300 -5.121230 16 16 16 0.970721 -0.237463 -0.036215
-41.638199 -46.494400 -3.858800 14 14 14 0.820875 0.102131 -0.561902
-42.373100 -45.327202 -1.659920 18 18 18 0.995729 -0.087249 0.030181
-42.087101 -45.729000 34.046902 6 6 6 -0.282387 -0.163424 -0.945278
-41.680099 -45.032700 -5.432200 5 5 5 0.887824 -0.389975 0.244311
-41.254398 -44.240101 -3.577760 12 12 12 0.985447 0.169802 0.007875
-42.494598 -44.999699 -1.496200 31 31 31 0.995366 0.013525 0.095208
-42.492199 -41.517899 -3.135490 9 9 9 0.661074 0.192691 0.725156
-42.613300 -41.010700 -3.084170 12 12 12 0.559964 0.228939 0.796258
-40.941700 -38.326000 -4.099230 23 23 23 0.095987 0.297426 0.949908
-40.993599 -38.374599 -3.749830 255 255 255 0.047452 0.256184 0.965463
-42.495300 -27.399599 -4.253760 164 164 164 0.330352 0.301460 -0.894421
-42.239799 -17.822300 -0.884897 255 255 255 0.440505 -0.893881 0.083263
-41.416000 -15.422400 -3.532060 5 5 5 0.020133 0.256053 0.966453
-41.573601 -14.071100 -3.553570 1 1 1 0.100360 -0.051463 0.993619
-42.041698 -12.945200 -3.528230 2 2 2 0.116963 -0.060569 0.991288
-42.638901 -12.841900 9.367260 36 36 36 0.833559 -0.552293 0.012341
-41.974098 -9.144180 -3.673860 0 0 0 0.503734 -0.147339 0.851201
-41.639400 -9.016760 -3.712350 3 3 3 0.497298 -0.062242 0.865344
-40.898201 -8.107960 8.404690 48 48 48 0.080722 -0.356935 -0.930635
-40.808601 -1.163200 -0.657116 255 255 255 0.648553 0.183377 0.738750
-41.741699 4.334490 -2.496670 7 7 7 -0.062908 -0.528516 0.846589
-41.241600 5.279430 3.619290 255 255 255 0.571393 -0.799845 0.183734
-42.666901 8.716220 -3.132230 42 42 42 -0.043366 -0.182237 0.982298
-40.943699 10.805800 0.369532 77 77 77 0.763289 -0.286112 0.579250
-41.124500 9.048600 3.123520 2 2 2 0.619116 -0.351482 -0.702251
-42.712898 10.926600 7.968540 7 7 7 0.037674 -0.985612 -0.164771
-42.642899 10.908500 8.128360 6 6 6 0.037014 -0.987874 -0.150778
-41.462299 11.954000 -2.897960 25 25 25 0.658645 -0.339455 -0.671533
-42.695202 11.844200 1.198510 7 7 7 0.029717 -0.995403 -0.091051
-42.067101 11.669400 3.161090 8 8 8 0.043989 -0.993147 -0.108278
-42.614300 10.959300 7.768750 8 8 8 0.050322 -0.988924 -0.139631
-41.554901 10.964400 8.133480 8 8 8 0.048284 -0.986051 -0.159288
-41.363098 14.678500 1.649650 18 18 18 0.996141 0.087446 0.007506
-41.862900 26.227800 5.599740 14 14 14 -0.469079 -0.883142 -0.005026
-42.001999 26.167200 6.518390 10 10 10 -0.451635 -0.891758 -0.028171
-40.991100 38.923500 1.728110 28 28 28 0.919470 0.381864 0.093569
-40.995899 38.637100 2.977480 32 32 32 0.918653 0.384256 0.091779
-41.246601 38.872501 4.497990 30 30 30 0.917207 0.387627 0.092073
-41.489399 40.098400 1.858320 30 30 30 0.920707 0.379164 0.092378
-41.742699 40.139500 4.087220 29 29 29 0.915992 0.390127 0.093594
-41.757401 40.153599 4.160000 30 30 30 0.915465 0.391360 0.093606
-42.314602 42.573700 -0.322974 19 19 19 0.916115 0.390092 0.092535
-42.493999 42.862099 0.191049 25 25 25 0.917988 0.386711 0.088049
-42.557999 42.174900 3.633260 16 16 16 0.917545 0.385507 0.097447
-42.493099 41.901299 4.181770 25 25 25 0.916412 0.388185 0.097477
-42.533600 43.120399 -0.457203 25 25 25 0.916586 0.388587 0.094177
-42.564899 43.042599 0.170688 26 26 26 0.916608 0.388910 0.092619
-41.865601 98.925697 32.096401 51 51 51 -0.370772 -0.925166 -0.081212
-41.860699 98.913902 32.235901 37 37 37 -0.371195 -0.925349 -0.077088
-42.049999 99.013702 31.884600 44 44 44 -0.369107 -0.925538 -0.084491
-42.033001 98.973503 32.165798 40 40 40 -0.366704 -0.925855 -0.091219
-40.489300 -50.700500 -4.017660 255 255 255 0.187740 -0.057811 -0.980516
-40.499001 -50.712601 -3.854890 255 255 255 0.267013 -0.048748 -0.962459
-38.747101 -47.073898 34.071201 50 50 50 0.832683 0.431776 0.346711
-39.003502 -46.071499 33.368198 12 12 12 0.790687 0.390824 0.471243
-38.999199 -44.457100 31.115400 11 11 11 0.844036 0.423795 0.328636
-40.491100 -44.772900 33.540501 11 11 11 0.524899 0.331771 0.783843
-39.552799 -44.410198 34.165798 24 24 24 0.925188 0.379258 0.013830
-40.677898 -29.225000 -3.346430 2 2 2 0.828369 0.214688 0.517411
-40.605000 -13.971200 -3.643840 13 13 13 0.095654 -0.044939 0.994400
-40.497101 -13.147300 8.350600 35 35 35 0.587722 0.297421 -0.752412
-40.577202 -10.948300 -3.624900 6 6 6 0.097331 0.009472 0.995207
-39.830200 -9.682190 8.978060 16 16 16 0.642402 -0.202464 0.739140
-39.315399 -10.292300 10.267900 7 7 7 0.834413 -0.247942 0.492220
-39.863602 -8.952150 9.624960 26 26 26 0.668804 -0.190585 0.718595
-39.658001 -8.487880 10.696500 37 37 37 0.707943 -0.148334 0.690517
-39.457298 -6.952400 10.779900 36 36 36 0.715206 -0.215041 0.665010
-40.195400 -2.005340 -3.634250 1 1 1 0.241232 0.135303 -0.960989
-40.131199 2.998520 -3.175550 7 7 7 -0.035978 -0.552612 0.832662
-40.338799 3.674920 2.452410 16 16 16 0.185160 0.971044 0.150963
-38.858898 5.572680 0.306803 37 37 37 0.754238 -0.619660 0.217132
-40.504200 8.116230 -3.400790 22 22 22 0.062808 0.426722 0.902199
-40.675900 10.897700 8.698040 12 12 12 0.063316 -0.983017 -0.172246
-40.329899 12.069200 -2.610660 52 52 52 0.709821 -0.608643 -0.354554
-40.493900 12.006400 -1.795570 6 6 6 0.397408 -0.802480 -0.445076
-40.722000 11.906500 1.004920 18 18 18 0.040752 -0.998971 -0.019881
-40.602600 11.704000 3.382860 7 7 7 0.059809 -0.992842 -0.103384
-40.694000 11.177200 6.788340 10 10 10 0.048932 -0.990975 -0.124798
-40.637501 10.997000 8.175750 6 6 6 0.065590 -0.983624 -0.167874
-40.282501 14.582000 -1.899480 12 12 12 0.854155 -0.000210 0.520018
-40.307800 14.591100 -1.848040 11 11 11 0.845992 0.004174 0.533180
-39.816700 12.955300 4.437450 6 6 6 0.263314 0.905570 -0.332578
-39.506302 15.549600 -3.613430 40 40 40 0.974776 -0.055914 0.216069
-39.636398 15.542600 -1.838110 55 55 55 0.998728 -0.031370 0.039464
-39.592602 17.156500 -3.155390 25 25 25 0.995708 0.042647 0.082136
-39.741299 17.577200 -1.725650 30 30 30 0.994193 0.042125 0.099021
-39.074100 21.315399 -1.934260 19 19 19 0.069904 -0.229062 0.970899
-39.074600 21.252001 -1.861550 23 23 23 0.080183 -0.245211 0.966148
-40.667198 38.328201 0.988138 29 29 29 0.919016 0.382854 0.093979
-39.019600 92.528397 25.086300 54 54 54 0.367231 -0.925157 -0.096048
-38.994400 92.787498 27.409500 44 44 44 0.412137 -0.878155 -0.242872
-39.021599 92.529404 28.193100 57 57 57 0.423356 -0.888992 -0.174537
-40.652000 98.459503 31.718700 49 49 49 -0.368456 -0.927440 -0.063986
-40.636398 98.421600 32.147499 40 40 40 -0.367704 -0.925331 -0.092503
-38.495899 -47.128399 32.883598 15 15 15 0.841656 0.362492 0.400269
-38.503201 -47.015202 32.717999 19 19 19 0.862592 0.375480 0.339042
-38.294701 -29.299801 -3.903950 54 54 54 0.049211 -0.123969 0.991065
-38.299099 -29.303301 -3.844930 48 48 48 0.046254 -0.119521 0.991754
-38.308601 -14.380100 8.383520 5 5 5 0.354464 0.428668 -0.831023
-38.456600 -4.057610 -2.825340 74 74 74 0.193028 -0.266233 0.944384
-36.984600 -4.612110 2.417610 44 44 44 0.982104 -0.106684 -0.155208
-36.785900 -3.371370 4.162630 46 46 46 0.839513 0.529039 -0.123838
-37.793301 -2.551360 -3.258650 1 1 1 0.778769 0.230348 0.583489
-38.498100 4.291420 -2.765360 55 55 55 0.183337 -0.682378 0.707636
-38.605999 5.387610 -1.375020 255 255 255 0.799184 -0.551123 0.239933
-37.502800 8.203570 -2.259680 38 38 38 0.307740 -0.909555 -0.279296
-37.294300 7.423270 -0.582184 31 31 31 0.764614 -0.635239 0.108800
-36.785599 8.336170 1.170890 32 32 32 0.914055 -0.359996 0.186833
-37.498798 10.049500 0.058238 91 91 91 -0.080984 -0.350240 -0.933153
-37.502201 10.050200 0.155829 39 39 39 0.200933 0.384531 0.900978
-38.049801 12.543300 -2.099380 6 6 6 -0.075149 -0.923658 -0.375777
-38.587898 12.129700 -1.425580 21 21 21 0.026503 -0.975968 -0.216296
-38.693501 12.055200 1.650790 21 21 21 0.082873 -0.989201 -0.120883
-38.728901 11.799400 3.347480 8 8 8 0.028112 -0.998884 -0.037959
-38.658100 11.141800 7.910170 6 6 6 0.051318 -0.988504 -0.142221
-38.700100 11.100600 8.136770 9 9 9 0.051158 -0.988061 -0.145320
-37.790401 18.627701 -4.277580 12 12 12 0.415009 -0.908905 -0.040737
-38.504501 18.020500 7.789990 2 2 2 0.368453 -0.870853 -0.325357
-38.710400 21.370501 -3.423480 81 81 81 0.112029 0.133598 0.984683
-38.328800 92.842598 21.049700 54 54 54 0.445837 -0.893961 -0.045421
-38.492699 92.903397 23.357300 66 66 66 0.371938 -0.925520 -0.071230
-38.674599 92.674103 24.454100 56 56 56 0.418258 -0.903463 -0.093888
-38.673302 92.667099 28.088800 51 51 51 0.456076 -0.874023 -0.167565
-38.673801 92.668297 28.225300 53 53 53 0.429792 -0.883933 -0.184233
-37.523602 93.209396 17.434601 55 55 55 0.408355 -0.911917 -0.040662
-38.152599 93.079903 19.706499 14 14 14 0.373127 -0.924898 -0.073079
-38.261902 93.012001 20.652100 63 63 63 0.321041 -0.942984 -0.087829
-38.376801 92.956802 23.325199 48 48 48 0.366057 -0.928471 -0.062801
-38.111198 92.974602 24.312201 57 57 57 0.383506 -0.917815 -0.102654
-38.537601 93.007599 27.416901 25 25 25 0.453556 -0.846504 -0.278778
-37.975601 92.970497 28.167601 53 53 53 0.382586 -0.908322 -0.169056
-38.602699 97.634804 31.855600 41 41 41 -0.371291 -0.925261 -0.077683
-38.596001 97.617699 32.138302 41 41 41 -0.367635 -0.926688 -0.078062
-34.793900 -54.364101 27.513500 31 31 31 0.869539 0.459475 0.181066
-35.231899 -53.696400 31.958000 28 28 28 0.925559 0.374093 0.058269
-35.247101 -53.574902 32.183399 7 7 7 0.931400 0.359674 0.055937
-34.741699 -51.802299 20.580799 74 74 74 0.915464 0.392398 0.089164
-35.503799 -52.231701 27.268900 68 68 68 0.927069 0.373271 0.034813
-35.854301 -52.609699 33.244999 26 26 26 0.901946 0.426032 0.070638
-35.247501 -49.666500 13.978500 19 19 19 0.886461 0.420497 0.193308
-35.256100 -49.678799 14.143200 42 42 42 0.889291 0.418710 0.183968
-35.743900 -49.573399 20.031799 20 20 20 0.961052 0.251381 0.114835
-36.006100 -49.415600 21.840500 14 14 14 0.953279 0.278276 0.117566
-35.022701 -48.959900 10.768700 26 26 26 0.891988 0.431532 0.134678
-35.497501 -48.843601 14.008400 39 39 39 0.914852 0.385604 0.119818
-35.511600 -48.862999 14.174000 59 59 59 0.914956 0.387405 0.113015
-36.617199 -5.362090 2.920590 35 35 35 0.880268 0.470383 -0.062195
-35.856201 -5.712830 4.356190 26 26 26 0.267785 0.963476 -0.002335
-36.263401 -5.826010 8.078470 45 45 45 0.377462 -0.857510 -0.349571
-36.266998 -5.779730 8.159920 16 16 16 0.408330 -0.853598 -0.323476
-36.331501 -4.160370 3.858090 33 33 33 0.436057 0.897358 0.067846
-36.727798 -3.832770 5.168910 24 24 24 0.084572 0.765864 0.637417
-36.279598 -4.850990 7.614310 45 45 45 0.674264 -0.735758 -0.063469
-36.725101 -2.991850 -3.182660 138 138 138 0.697656 0.339277 0.631005
-36.703800 8.125950 -2.283890 25 25 25 0.505102 -0.858791 -0.085729
-36.638699 7.916220 -0.060361 35 35 35 0.957679 -0.244417 0.152022
-36.724098 8.419750 1.148280 39 39 39 0.882895 -0.433963 0.179365
-35.397999 9.058800 -3.248610 51 51 51 0.245407 -0.942270 -0.227820
-36.314800 9.342260 -1.785350 37 37 37 0.733117 -0.128360 0.667880
-36.492500 8.947430 1.666440 18 18 18 0.817188 -0.534968 0.214507
-35.909698 10.839100 9.080680 6 6 6 0.087712 -0.891563 -0.444322
-35.730400 12.179100 -3.167400 47 47 47 -0.000603 -0.999775 0.021204
-36.708698 12.152300 -0.532467 8 8 8 0.028421 -0.816704 -0.576357
-35.510799 12.102600 1.620230 15 15 15 0.074717 -0.997190 -0.005343
-36.644600 11.923500 3.253230 9 9 9 0.051461 -0.987805 -0.146948
-36.712502 11.336200 7.172890 11 11 11 0.054401 -0.989726 -0.132224
-36.692402 11.176900 8.350810 9 9 9 0.049718 -0.988789 -0.140802
-35.601398 17.603001 -3.241940 5 5 5 0.291986 -0.149362 -0.944688
-35.002998 18.077999 3.313380 19 19 19 0.361025 0.165924 -0.917676
-35.743698 19.616800 -3.957170 15 15 15 0.606172 -0.781400 -0.148224
-35.525902 19.497000 -3.727480 42 42 42 0.890963 -0.451777 -0.045629
-35.548801 19.917999 -1.266930 19 19 19 0.623984 -0.776588 -0.086918
-35.812401 19.827499 1.609400 11 11 11 -0.185553 -0.769746 -0.610788
-35.565201 19.399401 3.388030 19 19 19 0.490461 0.871408 0.009788
-35.993099 19.750099 5.023900 18 18 18 -0.435845 -0.898998 -0.042922
-36.114700 19.698000 6.164610 13 13 13 0.583021 -0.771175 -0.255688
-34.751999 20.397400 8.172870 22 22 22 0.921578 0.386772 -0.033182
-36.055500 21.717899 -2.955670 11 11 11 0.771099 0.495985 -0.399257
-34.822300 21.214701 -1.834880 10 10 10 0.949603 -0.152636 -0.273782
-36.170799 22.915400 1.606670 5 5 5 0.807920 0.586803 0.054108
-35.747299 22.520700 3.632300 19 19 19 0.965242 0.261189 0.009387
-35.993401 22.801399 5.481670 7 7 7 0.885266 0.464217 -0.028389
-35.769001 22.849400 7.436170 15 15 15 0.926666 0.375811 -0.007504
-35.758801 22.778900 8.159130 19 19 19 0.918452 0.394684 -0.025895
-36.163502 22.975000 1.540240 7 7 7 0.770091 0.636810 0.037859
-36.003300 23.126499 3.642260 19 19 19 0.934547 0.355393 -0.017802
-36.020100 23.200600 5.486230 6 6 6 0.914440 0.404183 -0.020864
-36.008301 23.192699 6.140780 18 18 18 0.920591 0.389121 -0.033122
-35.828999 22.949900 8.159130 19 19 19 0.919410 0.392554 -0.024207
-35.014099 32.914799 6.271620 2 2 2 0.226870 -0.196294 -0.953938
-36.711399 93.559196 17.487801 57 57 57 0.411529 -0.910797 -0.033045
-36.701698 93.534203 18.127701 56 56 56 0.405562 -0.913401 -0.034884
-36.616798 93.671501 20.204599 60 60 60 0.392385 -0.917625 -0.063225
-36.611099 93.653099 23.642099 65 65 65 0.386027 -0.919263 -0.077066
-36.663799 93.429901 25.368000 28 28 28 0.400031 -0.903473 -0.153986
-36.606701 93.637199 27.940100 58 58 58 0.378895 -0.848224 -0.370073
-36.694599 93.504601 28.227600 61 61 61 0.402207 -0.896975 -0.183481
-35.530399 95.077499 27.809200 18 18 18 0.246684 -0.289318 -0.924901
-33.012199 -78.397202 5.662690 16 16 16 -0.604389 0.692354 0.394158
-33.027599 -78.434097 6.205370 15 15 15 -0.618547 0.706770 0.343330
-33.242901 -55.078400 19.028700 26 26 26 0.947082 0.304456 0.101703
-33.333199 -55.073700 20.168200 38 38 38 0.938095 0.332061 0.098561
-34.247799 -55.637699 27.990299 21 21 21 0.907827 0.387758 0.159668
-34.293598 -55.556599 28.143499 10 10 10 0.906652 0.393973 0.150887
-34.503799 -55.124298 31.865400 26 26 26 0.908820 0.416184 0.028929
-34.605301 -55.757301 33.676701 31 31 31 0.933792 0.350272 0.073092
-32.770599 -54.136799 10.651100 49 49 49 0.910979 0.389134 0.136719
-33.993801 -53.544998 19.246300 34 34 34 0.932212 0.351843 0.084781
-34.259399 -53.075901 21.586201 36 36 36 0.927370 0.371242 0.046530
-34.684898 -54.344299 26.460800 58 58 58 0.884644 0.465818 0.020456
-33.870499 -51.605801 11.668100 29 29 29 0.894499 0.417549 0.159761
-34.247799 -51.626499 13.898300 24 24 24 0.892079 0.421603 0.162619
-34.160198 -51.908501 14.163900 30 30 30 0.891838 0.422277 0.162195
-34.574200 -51.828300 19.901800 28 28 28 0.939830 0.325466 0.103884
-34.659698 -52.104000 20.626801 59 59 59 0.907883 0.405262 0.107288
-34.008598 -45.677898 -4.994620 40 40 40 0.140862 -0.011783 0.989959
-34.690399 -15.778600 0.241568 33 33 33 -0.061619 0.996967 0.047549
-34.629200 -9.435710 -3.616660 1 1 1 0.524668 0.795340 -0.303575
-32.863800 -9.624100 -1.823540 16 16 16 0.642099 0.731444 -0.229563
-33.456699 -9.708590 0.356550 19 19 19 -0.012226 0.861230 -0.508069
-32.889301 8.725770 -3.570330 8 8 8 0.075727 -0.561374 0.824090
-34.124401 8.366990 1.162530 2 2 2 0.272121 -0.423877 -0.863874
-34.610699 9.089590 -3.280160 52 52 52 0.094868 -0.984401 -0.148170
-34.694199 10.523000 0.225252 77 77 77 0.117095 -0.368320 -0.922296
-34.714901 10.908300 9.188820 11 11 11 0.071990 -0.904353 -0.420669
-34.447498 12.274700 -2.450140 14 14 14 0.089816 -0.995939 0.006239
-34.719898 11.929400 -0.280585 25 25 25 0.021112 -0.897256 -0.441006
-34.697800 10.955000 0.170047 76 76 76 0.099397 -0.479859 -0.871697
-34.717400 11.927100 3.882190 11 11 11 0.050115 -0.987352 -0.150413
-33.296101 11.861800 4.993980 7 7 7 0.242458 -0.957098 -0.158677
-34.641998 11.416600 7.350160 10 10 10 0.054244 -0.988911 -0.138248
