ply
format ascii 1.0
element vertex 721
property float x
property float y
property float z
property uchar red
property uchar green
property uchar blue
property float nx
property float ny
property float nz
end_header
-2.706270 11.408100 -0.383345 88 88 88 -0.299221 -0.068403 0.951729
-2.466360 12.149700 0.869123 69 69 69 -0.939789 -0.295999 -0.170824
-1.766220 11.883300 3.415240 55 55 55 0.609793 -0.788011 0.084799
-2.708390 11.472600 4.522350 69 69 69 0.556958 -0.360123 -0.748405
-2.564240 11.370400 5.765470 98 98 98 0.407789 -0.908927 0.086946
-2.688450 11.511200 7.921940 112 112 112 0.341154 -0.925880 -0.162356
-2.511420 11.531100 9.759710 97 97 97 0.221162 -0.968677 0.112923
-2.483560 11.606800 11.870100 105 105 105 0.405276 -0.907083 -0.113806
-2.699360 11.605700 15.411100 89 89 89 0.370214 -0.928779 -0.017631
-2.672290 11.687100 15.764100 40 40 40 0.382305 -0.923667 0.026121
-2.696710 11.856400 18.248501 85 85 85 0.389740 -0.895158 -0.216321
-2.484890 11.960100 19.770599 68 68 68 0.499095 -0.856393 0.132267
-2.538080 12.060800 21.766600 31 31 31 0.388771 -0.912121 -0.129968
-2.700860 11.931400 23.777599 54 54 54 0.402839 -0.859902 0.313511
-2.620410 12.137000 26.035700 3 3 3 0.429828 -0.895366 0.116484
-2.694960 12.107400 28.966999 27 27 27 0.415316 -0.880181 -0.229769
-2.361720 12.439700 29.768499 46 46 46 0.395438 -0.915252 0.077092
-1.540240 14.307500 0.050975 3 3 3 0.022310 -0.014069 0.999652
-1.866840 13.365000 4.661910 11 11 11 0.066153 0.044823 -0.996802
-2.203540 13.523200 7.620080 70 70 70 -0.161971 -0.045690 -0.985737
-2.212210 13.683400 7.980040 86 86 86 -0.296126 0.197182 -0.934574
-2.510110 13.371900 11.321600 94 94 94 -0.144511 0.251828 -0.956922
-1.567790 13.387000 14.712800 99 99 99 -0.264681 -0.022227 -0.964080
-1.912380 13.389600 18.066799 96 96 96 -0.206856 0.120630 -0.970906
-1.060850 13.363100 21.500700 53 53 53 0.164535 -0.276884 -0.946712
-0.917038 13.479200 24.295799 37 37 37 -0.946298 -0.258297 -0.194429
-2.218530 15.611600 -0.329136 22 22 22 0.374003 -0.709509 0.597259
-2.566950 16.839300 1.270000 97 97 97 0.633548 -0.374612 0.676966
-1.858330 18.346800 -0.633670 129 129 129 0.995995 -0.063516 -0.062928
-2.019560 18.325701 0.655251 188 188 188 0.848582 -0.034305 0.527950
-1.347030 35.334900 -0.290256 21 21 21 0.540326 0.021718 0.841176
-2.109400 34.688202 1.302910 13 13 13 0.633188 -0.024214 0.773619
0.597610 -21.356501 17.099400 9 9 9 0.262785 -0.400411 -0.877847
-0.580550 -21.062099 20.965599 12 12 12 0.271141 -0.254118 -0.928389
-0.699010 -19.157101 14.695300 4 4 4 -0.391759 0.919961 0.014044
-0.695853 -19.089001 15.778800 7 7 7 -0.360832 0.931612 -0.043585
-0.546050 -19.805500 19.468800 7 7 7 -0.184956 0.976739 -0.108502
-0.696918 -20.593201 20.959700 11 11 11 0.088202 -0.390725 -0.916272
-0.561074 -18.721800 21.762400 18 18 18 -0.394519 0.918039 -0.039497
-0.678968 -18.757099 23.775200 4 4 4 -0.497999 0.865359 -0.056127
-0.684461 -18.954901 27.032101 8 8 8 -0.430254 0.850591 0.302285
-0.697742 -20.021299 28.955799 4 4 4 0.185057 -0.051313 -0.981387
-0.698954 -18.766800 31.025000 12 12 12 -0.591104 0.803985 0.064841
-0.706895 -19.648500 32.967400 4 4 4 0.594780 0.115133 -0.795601
0.287018 -18.635201 14.440500 22 22 22 -0.349409 0.922843 0.162091
0.285650 -18.631800 16.615400 5 5 5 -0.409571 0.875549 -0.256252
0.027749 -18.637300 18.132601 5 5 5 -0.396923 0.916938 -0.040949
-0.300809 -18.636299 21.042000 21 21 21 -0.466617 0.855806 -0.223305
-0.253893 -18.621401 21.759199 4 4 4 -0.400775 0.915273 -0.040681
-0.462874 -18.635700 24.691299 7 7 7 -0.384212 0.916767 -0.109178
-0.554848 -18.589899 25.759501 4 4 4 -0.402874 0.914866 -0.026716
-0.694387 -18.617201 28.939899 5 5 5 -0.135442 0.579394 -0.803715
-0.641895 -18.464399 29.795500 3 3 3 -0.401888 0.914765 -0.041119
-0.498846 -18.368200 31.770901 5 5 5 -0.477230 0.876867 -0.057927
-0.680937 -18.330999 33.845299 1 1 1 -0.395825 0.918059 -0.022152
-0.687021 -18.517599 35.892502 7 7 7 -0.424407 0.893396 0.147386
-0.699745 -17.695900 37.785400 19 19 19 -0.233822 0.827904 -0.509805
-0.705879 -15.413200 -5.986720 255 255 255 0.135662 0.982684 -0.126210
1.035460 -15.390700 4.106960 12 12 12 0.434309 0.119918 -0.892746
0.280906 -13.540400 3.513980 13 13 13 0.942352 0.297773 -0.152655
0.024380 -13.142000 4.171330 14 14 14 0.176962 0.123575 -0.976429
-0.466917 -11.891700 3.658340 14 14 14 0.877865 0.478894 0.003824
-0.481837 -11.888100 3.767730 14 14 14 0.896076 0.389650 -0.212653
0.177818 -10.393300 -2.391080 0 0 0 -0.104773 0.881824 -0.459793
-0.558531 -10.241200 -1.934930 0 0 0 -0.111624 0.930198 -0.349673
-0.701047 -10.250900 -0.234170 98 98 98 0.000949 0.984027 -0.178019
-0.643481 -10.388200 2.910070 18 18 18 0.480273 0.841960 0.245847
-0.698357 -10.634000 4.661830 63 63 63 0.517788 0.685557 -0.511768
-0.703736 -9.960820 5.770620 109 109 109 -0.064339 0.984849 -0.161036
-0.486760 -7.999400 -1.203860 1 1 1 -0.228819 0.223417 -0.947485
-0.706032 -5.926480 -0.782935 24 24 24 0.943301 0.139730 -0.301096
-0.709071 -4.611580 -2.146770 31 31 31 0.173044 -0.380518 0.908439
-0.709538 -2.593480 -2.070780 23 23 23 -0.018706 -0.022977 0.999561
-0.709656 -0.589021 -2.041460 27 27 27 -0.018557 -0.009613 0.999782
-0.661447 1.409830 -2.055450 30 30 30 -0.016041 0.027113 0.999504
-0.660729 3.411740 -2.118700 24 24 24 -0.018488 0.036049 0.999179
-0.667152 6.512180 -2.246100 33 33 33 0.016491 -0.111093 0.993673
-0.662629 5.393030 -2.191630 27 27 27 -0.015108 0.045587 0.998846
-0.664779 7.404960 -2.094100 41 41 41 0.010100 -0.056884 0.998330
0.680747 9.276400 5.220870 50 50 50 0.773030 -0.603519 0.195421
0.093536 8.952960 5.757560 52 52 52 0.411063 -0.831068 -0.374638
-0.651572 9.906560 -2.246260 27 27 27 0.008054 -0.185582 0.982596
-0.678302 9.402660 -2.205300 26 26 26 0.009592 0.076436 0.997028
-0.661874 10.234700 1.420500 234 234 234 -0.005964 -0.949987 -0.312233
-0.661185 10.222000 1.761810 255 255 255 0.038219 -0.966048 -0.255520
-0.213442 10.310500 3.784910 43 43 43 -0.429146 -0.889777 -0.155342
0.740917 9.759060 5.861530 42 42 42 -0.209986 -0.949660 -0.232492
0.165647 11.876900 -0.402957 10 10 10 -0.985464 -0.104672 0.133811
0.016604 11.865700 0.755231 155 155 155 -0.970223 -0.057741 -0.235231
0.715989 12.323900 3.506890 28 28 28 0.619151 -0.260779 0.740707
-0.669388 11.709200 3.875180 37 37 37 -0.215198 -0.792966 0.569995
-0.513840 12.197100 5.761810 91 91 91 0.378219 -0.924667 0.044052
-0.693244 12.361500 8.311880 103 103 103 0.445612 -0.864790 -0.231447
-0.560089 12.502000 9.764280 64 64 64 0.384082 -0.895554 0.224642
-0.695624 12.362000 12.297700 85 85 85 0.430759 -0.902464 0.002236
-0.549611 12.561200 13.758500 48 48 48 0.107321 -0.989863 0.093026
-0.696035 12.611500 16.795601 71 71 71 0.357585 -0.919278 0.164502
-0.678079 12.857900 18.266300 112 112 112 0.493261 -0.849995 -0.184941
-0.612814 12.840000 19.776800 27 27 27 0.382035 -0.904135 0.191283
-0.696137 12.860700 21.938900 69 69 69 0.381070 -0.835383 -0.396133
-0.491793 12.999600 23.757900 37 37 37 0.173531 -0.980056 0.096835
-0.463771 13.106900 25.805401 34 34 34 0.388859 -0.921281 -0.005468
-0.680320 13.108900 28.821899 58 58 58 0.398326 -0.901420 -0.169641
-0.511576 13.370100 4.822130 10 10 10 0.162343 0.034269 -0.986139
-0.614922 13.771500 7.230360 29 29 29 0.486893 -0.403172 -0.774847
-0.564498 13.380700 7.759650 15 15 15 -0.880578 -0.107780 -0.461483
-0.515853 13.392300 11.001600 38 38 38 -0.058054 -0.374529 -0.925396
0.596684 13.366500 13.656300 21 21 21 0.127127 -0.989462 0.069311
-0.234518 13.554100 14.869600 95 95 95 0.379363 0.077068 -0.922033
-0.571566 13.411100 17.689400 78 78 78 -0.442485 -0.518715 -0.731534
-0.607939 13.854600 18.239700 91 91 91 0.206753 0.224867 -0.952202
-0.645066 13.507400 21.568600 45 45 45 0.201112 -0.096711 -0.974782
0.231184 13.370000 21.760099 101 101 101 0.595086 -0.731641 -0.332527
-0.220773 13.409700 25.003000 60 60 60 0.598015 -0.720353 -0.351383
-0.426262 13.461600 27.104401 16 16 16 0.438015 -0.897951 0.042752
-0.541304 13.382500 27.802401 17 17 17 0.483823 -0.875151 0.005164
0.102424 13.522200 30.245501 36 36 36 0.407303 -0.911916 0.050127
1.030440 15.388700 5.010250 8 8 8 0.007454 0.135748 -0.990715
1.516180 -19.338800 16.735399 6 6 6 0.266623 0.168455 -0.948965
1.291610 -19.698799 21.166700 4 4 4 0.450444 -0.298837 -0.841306
2.695260 -18.680599 24.753700 5 5 5 0.614215 0.191263 -0.765610
1.395900 -19.145201 29.189400 5 5 5 0.132651 -0.029954 -0.990710
1.696000 -16.922001 4.270390 9 9 9 0.272231 -0.004779 -0.962220
1.490490 -18.130501 13.740300 16 16 16 -0.396709 0.917841 0.013786
1.339060 -18.254999 13.814400 4 4 4 -0.401064 0.912416 -0.081514
1.387930 -18.627100 16.768299 5 5 5 0.520473 0.614070 -0.593318
1.509690 -18.402500 19.204399 12 12 12 -0.541313 0.759260 0.361254
1.292110 -18.623501 21.175200 5 5 5 -0.136215 0.338159 -0.931179
1.399360 -17.895399 21.767700 4 4 4 -0.401712 0.896609 -0.186333
1.307280 -17.903200 23.761900 4 4 4 -0.378180 0.924100 -0.054941
1.341290 -18.085300 27.258101 16 16 16 -0.406790 0.854144 0.323977
1.440020 -18.454201 27.919001 9 9 9 -0.554566 0.826461 0.097052
1.304960 -17.618299 29.769300 3 3 3 -0.390865 0.905779 -0.163672
1.301780 -17.590000 31.775200 2 2 2 -0.409562 0.912023 -0.021751
1.290560 -17.457300 34.325401 2 2 2 -0.406966 0.913116 -0.024439
1.308290 -17.714600 37.345001 5 5 5 0.005317 0.250355 -0.968140
1.428750 -16.772800 37.781399 16 16 16 0.014836 0.515756 -0.856607
1.337120 -15.692500 -4.877790 255 255 255 -0.241356 0.066186 0.968177
1.527310 -16.491600 4.103500 9 9 9 0.378240 0.146198 -0.914090
3.275370 -16.631800 33.420898 115 115 115 -0.414115 0.908513 -0.055790
3.015110 -16.631100 34.817200 36 36 36 -0.400904 0.916117 0.002307
1.815680 -16.611799 37.563000 36 36 36 0.130262 0.224017 -0.965841
1.896320 -16.577499 37.758202 11 11 11 -0.051293 0.473709 -0.879186
1.297550 -14.616300 4.382030 21 21 21 0.289872 0.018999 -0.956877
1.996860 -11.277100 3.503280 4 4 4 -0.980635 0.141974 -0.134900
1.295800 -12.614300 4.408330 1 1 1 0.175532 -0.051325 -0.983135
1.301810 -10.140900 -1.582980 125 125 125 -0.071088 0.939642 0.334694
1.300710 -10.137900 0.393340 84 84 84 -0.003271 0.954745 -0.297406
1.309640 -9.915060 2.417670 155 155 155 -0.062122 0.992400 0.106225
1.294380 -10.627400 4.722010 48 48 48 -0.082951 0.646877 -0.758070
1.298340 -9.842280 5.761630 108 108 108 -0.082179 0.979849 -0.182049
2.833690 -7.010860 -2.274210 2 2 2 -0.418221 -0.172441 0.891827
1.419120 -8.634290 -1.932440 11 11 11 -0.033804 0.035278 0.998806
1.403090 -6.521660 -1.512210 2 2 2 0.267588 -0.141228 0.953127
1.303540 -4.624390 -2.110990 30 30 30 -0.225071 -0.449743 0.864335
1.292330 -2.636070 -2.034380 26 26 26 0.188494 0.012237 0.981998
1.452570 -0.631058 -1.479720 14 14 14 -0.331318 -0.266071 0.905226
1.987420 -0.018305 -0.226847 1 1 1 -0.924179 -0.138872 -0.355819
1.300600 1.609170 -2.027770 23 23 23 -0.022025 -0.025869 0.999423
1.339190 3.370100 -2.085370 26 26 26 -0.246488 0.185225 0.951281
1.338230 5.379230 -2.165110 29 29 29 -0.011557 0.045491 0.998898
1.434190 7.362240 -0.051722 250 250 250 0.972515 -0.225296 0.058781
2.863370 9.201470 -2.270320 16 16 16 0.237977 0.109788 0.965046
1.333060 7.388970 -2.079660 39 39 39 -0.110107 -0.088862 0.989939
1.438620 7.385340 -0.231592 25 25 25 0.967078 -0.247262 0.060172
1.537840 9.238210 4.462490 44 44 44 -0.378318 -0.725320 0.575141
1.886000 9.057180 6.657670 27 27 27 0.711118 -0.694910 -0.106821
1.321960 10.152400 -2.308340 28 28 28 0.032652 -0.614539 0.788211
1.330040 10.522800 -2.233950 31 31 31 0.094445 -0.981245 0.168043
1.335100 10.343100 1.665440 255 255 255 0.090362 -0.952375 -0.291232
1.334750 10.340300 1.759480 252 252 252 0.112828 -0.954870 -0.274759
1.459910 9.503370 5.545510 33 33 33 -0.305818 -0.898532 -0.314826
2.037940 9.431450 6.715140 24 24 24 0.425638 -0.891808 0.153332
2.726910 9.875810 7.778890 22 22 22 0.067647 -0.984161 0.163860
2.010480 11.384000 0.539460 89 89 89 -0.552554 0.001437 0.833476
1.669670 12.802300 4.269510 25 25 25 0.137925 0.201912 -0.969643
1.530860 13.137500 7.561680 87 87 87 0.323266 -0.945209 0.045594
1.379400 12.664700 8.169700 50 50 50 0.088461 -0.833806 0.544925
1.382850 13.311000 9.765820 102 102 102 0.349627 -0.924390 0.152524
1.321390 13.358200 12.064900 86 86 86 0.439239 -0.875548 -0.201209
1.290870 15.250700 5.045370 7 7 7 -0.041577 0.152237 -0.987469
1.472490 13.362800 9.061360 84 84 84 0.383117 -0.923398 0.023599
1.525050 13.370500 9.819560 63 63 63 0.359996 -0.920222 0.153604
1.328680 13.434100 11.771400 102 102 102 0.529293 -0.830531 -0.173402
1.313250 13.607200 15.122100 109 109 109 0.372611 -0.914389 -0.158283
1.331230 13.436100 15.766200 75 75 75 0.418340 -0.905575 -0.070183
1.485130 13.586800 17.775700 48 48 48 -0.529438 -0.835366 -0.147849
1.299030 13.608400 20.646900 60 60 60 0.561510 -0.808609 0.175663
1.339410 13.841000 21.903601 91 91 91 0.396459 -0.871634 -0.288226
1.307920 13.861000 25.649599 63 63 63 0.445056 -0.826167 -0.345505
1.342740 13.854900 25.760099 58 58 58 0.424685 -0.837906 -0.342865
1.539090 14.035000 27.811199 42 42 42 0.379704 -0.910824 0.161942
1.351500 14.111800 30.069300 47 47 47 0.387088 -0.918006 0.086186
1.320110 15.363400 5.045110 7 7 7 -0.047499 0.159887 -0.985992
2.711640 15.535000 15.221900 67 67 67 0.146716 0.015464 -0.989058
2.563960 15.362600 18.606300 67 67 67 0.181250 0.055848 -0.981850
2.829350 15.378000 25.360300 68 68 68 0.348058 0.245077 -0.904872
4.159240 -18.807100 17.527700 8 8 8 -0.396796 -0.076778 -0.914690
3.290700 -18.647600 25.423700 12 12 12 0.086336 -0.218167 -0.972085
3.403550 -17.310900 4.614790 6 6 6 0.122560 -0.011245 -0.992397
3.317510 -17.357201 13.468900 23 23 23 -0.388842 0.921113 -0.018792
3.297420 -17.371901 13.768000 6 6 6 -0.394390 0.918184 -0.037344
3.539730 -17.458300 17.499500 6 6 6 0.086703 0.445162 -0.891243
3.351330 -17.195499 17.756901 5 5 5 -0.295060 0.928033 -0.227363
3.506080 -17.643400 19.822100 6 6 6 -0.488796 0.332083 -0.806721
3.339470 -17.266701 23.417000 4 4 4 -0.321093 0.911942 0.255464
3.307830 -18.608101 25.428801 12 12 12 0.099813 -0.242083 -0.965108
3.308990 -16.891100 25.798901 4 4 4 -0.333976 0.932925 -0.134576
3.295420 -18.283199 29.415800 7 7 7 0.100117 0.012632 -0.994896
3.339300 -16.723801 29.770901 2 2 2 -0.300593 0.877075 -0.374678
3.410840 -16.649300 31.765200 4 4 4 -0.410510 0.911706 -0.016545
3.296110 -17.198099 37.628300 10 10 10 0.183929 0.047534 -0.981789
3.392720 -16.592300 4.603690 15 15 15 0.117701 0.009255 -0.993006
5.021890 -14.914100 5.965900 2 2 2 0.927026 0.374648 -0.016176
4.973130 -16.626200 13.378300 4 4 4 -0.386648 0.922000 -0.020462
4.770720 -16.635900 15.093700 31 31 31 -0.372322 0.927922 -0.018357
4.769920 -16.637400 17.121599 7 7 7 -0.496641 0.867383 -0.031516
4.520180 -16.635700 18.601700 5 5 5 -0.401082 0.915307 -0.036689
4.273250 -16.637300 21.570601 36 36 36 -0.394261 0.891032 -0.224988
3.936050 -16.623199 22.990200 3 3 3 -0.427356 0.903580 -0.030170
3.936460 -16.630899 25.519199 39 39 39 -0.135581 0.706795 -0.694304
3.716530 -16.635500 26.918600 32 32 32 -0.424491 0.904327 0.044722
3.493580 -16.624001 29.488899 37 37 37 0.100407 -0.231402 -0.967663
3.517360 -16.634100 30.105900 3 3 3 -0.376965 0.918077 -0.122604
3.429660 -16.636700 31.818899 3 3 3 -0.407578 0.912935 -0.020740
3.439330 -16.482700 34.455601 1 1 1 -0.406511 0.913431 -0.019814
3.511730 -16.625601 37.669601 67 67 67 -0.132937 0.291589 -0.947261
3.379930 -15.906500 37.769402 30 30 30 -0.251159 0.265411 -0.930847
3.293720 -14.607800 4.643450 2 2 2 0.122263 0.015125 -0.992383
4.030690 -12.652700 6.035180 2 2 2 0.925534 0.375593 -0.048124
3.527120 -10.650100 3.053490 3 3 3 0.883588 0.430965 0.183145
3.299020 -12.621900 4.636550 22 22 22 0.098913 -0.009505 -0.995051
3.531220 -11.432100 5.780740 2 2 2 0.915012 0.397160 0.070825
3.538950 -8.917230 -2.738980 1 1 1 -0.966723 -0.255821 -0.001443
3.291270 -9.648030 -1.745670 50 50 50 -0.212710 0.769733 0.601886
3.298650 -9.711490 -0.229281 124 124 124 -0.192616 0.980915 -0.026533
3.426550 -10.390400 2.951600 3 3 3 0.814654 0.497679 0.297748
3.390040 -10.546700 3.802540 3 3 3 0.892649 0.429538 0.136656
3.301160 -9.726940 5.760960 106 106 106 0.001112 0.901875 -0.431995
3.295080 -9.752590 7.756510 31 31 31 -0.058533 0.998208 0.012441
3.295960 -8.459940 -1.828430 48 48 48 -0.050506 0.092948 0.994389
3.296720 -6.578660 -2.027720 47 47 47 -0.014743 0.070478 0.997404
3.299120 -4.629540 -2.076480 25 25 25 -0.024940 -0.057042 0.998060
3.291440 -2.635410 -1.996870 27 27 27 0.146015 0.075417 0.986403
3.534420 -0.520017 -0.989032 1 1 1 -0.066673 -0.822252 0.565205
3.296930 1.446030 -1.977910 21 21 21 -0.061475 0.289280 0.955268
3.330490 3.363200 -2.038230 22 22 22 -0.024090 0.043149 0.998778
3.529940 5.366420 -2.122450 27 27 27 -0.007264 0.049709 0.998737
3.710640 8.602970 -2.252690 25 25 25 0.031656 0.100720 0.994411
3.489020 7.510860 -2.130510 34 34 34 0.061881 0.047092 0.996972
3.297260 9.005320 5.361910 44 44 44 0.885519 -0.407705 -0.222784
3.484350 9.123350 5.765080 23 23 23 0.437584 -0.790248 -0.428985
3.402500 10.292900 -2.420230 20 20 20 0.055758 -0.772583 0.632461
3.331650 10.659200 -2.231480 21 21 21 0.011715 -0.971249 0.237779
3.537290 10.608000 0.064103 21 21 21 0.038314 -0.999232 0.008226
3.337820 10.581800 1.761560 23 23 23 0.027208 -0.990001 -0.138409
3.532880 9.575170 4.870200 48 48 48 0.403691 -0.901828 -0.154075
3.334030 9.396220 6.269840 28 28 28 -0.015234 -0.940422 0.339667
3.318560 9.857720 8.120420 58 58 58 0.069838 -0.997186 0.027245
4.533820 11.406600 -2.395360 37 37 37 -0.096807 -0.006098 0.995284
4.376880 11.426600 -1.543620 6 6 6 0.676792 -0.588813 0.441873
3.658090 13.260600 4.281670 4 4 4 0.171868 -0.475110 0.862979
3.309570 14.040500 5.272150 92 92 92 0.719047 -0.576896 -0.387509
3.513210 14.247900 11.103400 69 69 69 -0.028817 -0.982457 0.184252
3.418280 14.244600 11.757600 76 76 76 0.198265 -0.980008 -0.016609
3.309820 14.260100 13.768400 72 72 72 0.321435 -0.941543 0.100882
3.294330 14.353500 15.805100 77 77 77 0.384868 -0.919629 -0.078479
3.333850 14.603200 18.756800 107 107 107 0.530208 -0.820878 -0.212224
3.467010 14.509400 19.774099 25 25 25 0.428974 -0.902637 0.035032
3.318060 14.608900 22.614201 66 66 66 0.427113 -0.897402 -0.110651
3.300390 14.611400 24.417101 53 53 53 0.197307 -0.945700 0.258305
3.322190 14.791100 25.767500 63 63 63 0.434501 -0.881799 -0.183409
3.319980 14.859500 29.469200 56 56 56 0.421904 -0.883665 -0.202814
3.587780 14.909700 29.791000 10 10 10 0.407452 -0.902772 -0.137787
3.851810 15.551900 5.339630 4 4 4 0.162554 0.236182 -0.958016
3.734720 15.385300 15.343500 60 60 60 0.042133 -0.105559 -0.993520
4.551180 15.479100 17.697300 26 26 26 0.214669 -0.975470 0.048739
3.381460 15.438100 18.720501 16 16 16 0.006768 -0.017113 -0.999831
4.519420 15.363300 21.391701 31 31 31 0.316611 -0.948402 -0.017069
4.526690 15.387400 21.765200 35 35 35 0.350619 -0.936035 -0.030071
3.848940 15.662100 25.467800 42 42 42 -0.396253 -0.424366 -0.814185
4.398460 15.369900 26.503201 45 45 45 0.370967 -0.924656 0.085990
3.758840 15.369900 28.819700 11 11 11 0.457133 -0.870451 -0.182602
4.670320 15.429400 29.757200 58 58 58 0.454811 -0.875744 -0.161923
4.404220 17.406900 5.437660 5 5 5 0.103200 0.108979 -0.988672
6.716660 -18.692801 5.598210 0 0 0 0.904698 0.425136 0.027935
6.748880 -18.933500 6.199040 0 0 0 0.923588 0.305669 -0.231413
6.038620 -16.940100 4.885090 1 1 1 0.921526 0.249661 -0.297422
6.029150 -17.188200 5.867230 1 1 1 -0.933088 -0.288582 -0.214632
6.595900 -16.892500 16.305500 5 5 5 0.558014 -0.057498 -0.827837
6.039040 -17.030800 17.789301 11 11 11 0.142793 0.130928 -0.981055
5.413510 -16.722601 19.789101 2 2 2 -0.560766 0.827937 -0.007904
6.961680 -16.773100 22.094900 3 3 3 -0.897225 -0.351034 -0.267885
5.423320 -17.749901 25.686800 12 12 12 0.412317 -0.187655 -0.891504
5.681100 -16.836700 25.763399 8 8 8 0.260626 0.002491 -0.965437
5.294800 -16.953800 29.674000 12 12 12 0.071116 0.091259 -0.993285
6.232050 -16.660801 31.057301 7 7 7 0.341034 -0.166630 -0.925165
6.355510 -17.458000 32.313000 8 8 8 0.766057 0.639614 0.063643
5.529480 -16.891001 34.452099 8 8 8 0.394922 -0.347913 -0.850290
5.509850 -15.897900 5.483920 2 2 2 0.910540 0.412487 -0.027784
5.478960 -16.138901 6.596890 1 1 1 -0.893185 -0.059558 -0.445728
5.493280 -16.461500 13.169200 7 7 7 -0.392754 0.916382 -0.077388
5.347550 -16.438700 13.760700 37 37 37 -0.398044 0.914184 -0.076343
5.389430 -16.431801 15.772200 6 6 6 -0.369729 0.929096 0.009049
5.338380 -16.280399 17.762899 20 20 20 -0.245198 0.963442 -0.107967
5.348690 -16.247000 20.259899 4 4 4 -0.551870 0.398437 -0.732590
5.303930 -16.462400 23.688801 7 7 7 -0.476605 0.856379 0.198653
5.504580 -16.448099 25.178101 5 5 5 -0.466844 -0.724214 -0.507515
5.317700 -15.958900 25.798800 7 7 7 -0.333426 0.930315 -0.152777
5.300000 -16.604500 29.688101 11 11 11 0.055612 0.268279 -0.961735
5.340290 -15.771200 29.764999 6 6 6 -0.380730 0.924528 -0.017124
5.299330 -16.117001 31.780199 11 11 11 -0.099087 0.981840 0.161778
5.328180 -16.627600 34.400799 7 7 7 -0.760876 -0.459765 -0.457913
5.296690 -15.652000 35.815201 53 53 53 -0.418912 0.906023 0.060286
5.329790 -15.687500 37.858299 45 45 45 0.036798 0.501349 -0.864462
5.517510 -14.170400 5.120030 65 65 65 -0.228939 0.823341 -0.519324
5.506580 -14.039800 6.501820 0 0 0 -0.163076 0.343848 -0.924757
6.495610 -14.527200 38.459900 15 15 15 -0.101244 0.473943 -0.874716
6.174680 -11.016500 3.475180 12 12 12 -0.924962 -0.362491 0.114217
5.523620 -12.195200 5.477530 5 5 5 0.165028 -0.221412 -0.961115
5.512510 -12.590300 6.880940 1 1 1 -0.067077 0.006932 -0.997724
5.536450 -9.703020 -1.020760 31 31 31 -0.050338 0.988040 0.145748
5.299370 -9.593380 -0.232604 112 112 112 -0.032081 0.997465 -0.063520
5.300200 -9.684190 2.917740 57 57 57 0.008373 0.931593 0.363406
5.536330 -10.270900 5.219170 18 18 18 0.370078 0.867710 -0.331845
5.473640 -10.309400 5.760990 12 12 12 -0.372757 -0.142761 -0.916881
5.454570 -9.624340 7.772220 84 84 84 -0.059853 0.998138 0.011746
5.291000 -8.582320 -1.778420 47 47 47 -0.008346 0.057879 0.998289
5.294640 -6.623130 -1.889130 37 37 37 -0.035002 0.073981 0.996645
5.311500 -4.627120 -2.046830 27 27 27 -0.333554 -0.087852 0.938629
5.300750 -2.635840 -1.949310 24 24 24 -0.020971 -0.040379 0.998964
5.787460 -0.534330 -0.879126 1 1 1 -0.119502 -0.304578 0.944961
5.471500 1.588320 -1.714450 3 3 3 -0.118005 0.416510 0.901440
5.332910 3.478290 -1.994540 21 21 21 -0.025079 0.040991 0.998845
5.332990 5.371900 -2.079750 31 31 31 -0.029222 0.048160 0.998412
5.319420 9.096280 -2.247430 29 29 29 -0.159110 0.038063 0.986527
5.328020 7.389640 -2.141730 33 33 33 -0.031315 0.015803 0.999385
5.335440 9.532170 -2.281070 27 27 27 -0.333329 -0.071653 0.940084
5.333130 10.761100 -0.282074 19 19 19 0.159666 -0.987010 -0.017832
5.333570 10.761900 -0.236798 19 19 19 0.162380 -0.986097 -0.035285
5.323780 10.573500 2.110380 186 186 186 0.083817 -0.980823 -0.175956
5.532040 10.084000 5.641310 26 26 26 0.267609 -0.952995 -0.142079
5.349360 9.837840 5.922080 36 36 36 0.220105 -0.942714 0.250687
5.322880 11.383300 -2.298940 27 27 27 -0.360077 -0.108485 0.926594
5.535120 11.385000 -1.843280 143 143 143 -0.973983 -0.226583 0.004022
6.531590 11.463900 -0.207465 15 15 15 0.069508 -0.537177 -0.840600
5.290790 11.848500 3.916350 15 15 15 -0.326305 -0.551049 0.768030
5.533790 13.819900 -1.557120 3 3 3 -0.205468 -0.154955 0.966319
5.295610 15.099700 12.666400 71 71 71 0.402454 -0.907440 -0.120765
5.418110 15.263400 13.765300 41 41 41 0.359395 -0.912006 0.197687
5.412390 15.303900 15.758500 72 72 72 0.218877 -0.925834 -0.308099
5.364660 15.287700 17.768900 59 59 59 0.131802 -0.984898 0.112267
5.349990 15.304400 19.766701 63 63 63 0.419921 -0.907031 -0.031010
6.789330 17.078800 -0.935260 140 140 140 -0.907218 -0.405267 -0.112755
6.830350 15.556500 5.948900 77 77 77 0.245196 0.096022 -0.964707
7.039660 16.025801 11.696000 57 57 57 0.434390 -0.897093 -0.080808
5.519740 15.430400 11.816000 18 18 18 0.391304 -0.889931 -0.234316
5.538190 15.416300 13.984100 41 41 41 0.311760 -0.926597 0.210297
5.520480 15.363500 15.890100 45 45 45 0.339330 -0.906468 -0.251338
5.336470 15.391700 18.900900 22 22 22 0.423550 -0.898674 -0.113974
5.528680 15.379400 19.813801 62 62 62 0.368908 -0.929281 -0.018556
5.326110 15.608400 22.395700 87 87 87 0.417747 -0.892175 -0.171789
5.456370 15.665800 23.892599 13 13 13 0.394885 -0.910700 0.121206
5.303660 15.600700 26.368099 60 60 60 0.412715 -0.908411 -0.066751
5.330120 15.610400 28.277000 32 32 32 0.174925 -0.961937 0.209948
5.356350 15.750700 29.770201 58 58 58 0.406074 -0.909186 -0.092112
6.756490 17.379000 -1.737410 14 14 14 -0.907120 -0.404850 -0.115020
8.496470 -23.096201 6.754470 1 1 1 0.186029 0.034622 -0.981934
7.506370 -20.648800 6.140220 0 0 0 0.881042 0.389821 -0.267963
9.168700 -19.202101 5.699710 22 22 22 -0.847366 -0.260831 0.462534
7.425370 -20.425900 6.045270 0 0 0 0.899288 0.403680 -0.168297
7.449890 -17.608900 5.605330 3 3 3 -0.010057 0.042473 -0.999047
7.301770 -18.547001 6.860700 5 5 5 -0.630588 0.068937 0.773050
7.869070 -16.816999 14.189200 11 11 11 0.102119 -0.229356 -0.967971
7.519080 -16.724400 17.051901 12 12 12 0.280328 -0.328957 -0.901778
7.490610 -16.890699 18.995701 12 12 12 0.828257 0.535924 -0.163635
7.311950 -16.717300 21.011101 12 12 12 0.287218 0.109244 -0.951615
7.434080 -17.911400 23.715401 9 9 9 -0.955941 -0.024948 -0.292497
7.456500 -17.902300 23.762800 10 10 10 -0.864350 -0.048020 -0.500593
7.298780 -17.344101 27.501900 7 7 7 -0.164949 -0.731854 -0.661197
7.366300 -17.754900 28.167900 7 7 7 -0.775992 -0.045845 -0.629074
8.996710 -16.667299 31.464300 11 11 11 0.432224 -0.441263 -0.786428
7.309730 -16.903799 35.304401 9 9 9 0.333862 -0.476210 -0.813486
7.414480 -16.096201 5.315920 10 10 10 -0.030577 0.155562 -0.987353
7.364700 -15.937200 6.435980 2 2 2 0.165652 0.606405 0.777710
7.532980 -15.940600 13.104100 17 17 17 0.022442 0.989368 -0.143693
7.435400 -15.838800 14.001200 12 12 12 0.106421 0.719611 -0.686174
7.459520 -16.592100 17.044100 12 12 12 0.161381 0.010550 -0.986836
7.496620 -16.292200 18.501200 12 12 12 -0.867703 -0.395347 -0.301318
7.299340 -16.632401 21.011400 11 11 11 0.291997 0.113770 -0.949628
7.313980 -16.610701 22.132601 2 2 2 -0.924270 -0.272407 -0.267431
7.309830 -16.270800 25.001301 11 11 11 0.102855 0.697697 -0.708971
7.510200 -16.387699 27.211800 7 7 7 0.345500 -0.097989 -0.933289
7.351860 -16.153999 29.398100 6 6 6 0.449763 0.518675 -0.727111
7.516550 -15.472500 29.761900 6 6 6 0.370642 0.394813 -0.840683
8.170680 -14.870500 32.117100 13 13 13 -0.323561 0.932056 0.163034
7.308970 -16.616699 35.316700 10 10 10 0.371605 -0.588287 -0.718211
7.326580 -14.947700 36.819801 11 11 11 -0.455580 0.879011 0.140661
7.314320 -15.311000 38.161499 5 5 5 0.064586 -0.022721 -0.997653
7.531090 -14.397800 5.013910 3 3 3 -0.913153 -0.391468 -0.113599
7.517330 -14.595400 5.802940 3 3 3 -0.890273 -0.329839 -0.314039
9.242180 -14.634300 15.652400 18 18 18 -0.370893 0.928625 -0.009717
9.036440 -14.637500 19.259600 5 5 5 -0.398557 0.916442 -0.035874
8.702690 -14.630200 22.169701 17 17 17 -0.455703 0.867407 0.199849
8.283870 -14.634600 27.473301 24 24 24 -0.400851 0.916115 0.007209
9.146170 -14.618100 28.212799 15 15 15 -0.300990 0.945338 0.125462
8.028920 -14.610900 30.172199 3 3 3 -0.466178 0.882080 -0.067915
7.532080 -14.614700 35.425800 13 13 13 -0.409125 0.900042 -0.150139
7.414360 -14.611400 36.165199 28 28 28 -0.402782 0.915267 -0.007334
7.293400 -14.601500 38.192402 80 80 80 -0.264063 0.452420 -0.851814
7.518310 -12.304000 5.157820 17 17 17 0.127907 0.012405 -0.991709
7.355880 -9.394000 -1.728870 38 38 38 0.043959 0.664677 0.745837
7.317860 -9.642220 0.567157 96 96 96 -0.009817 0.999191 0.039010
7.308510 -9.481630 1.768590 99 99 99 -0.024604 0.997409 -0.067603
7.496900 -10.582700 4.803300 0 0 0 0.714243 0.683505 0.150595
7.294300 -10.134800 5.756650 48 48 48 0.146354 0.678185 -0.720171
7.347320 -9.511880 7.756730 76 76 76 -0.060052 0.998091 0.014442
7.304560 -8.636500 -1.759310 40 40 40 0.012320 0.192777 0.981165
7.430760 -4.919210 -1.052310 1 1 1 -0.168722 0.226523 -0.959281
7.374840 -4.155140 -1.051380 1 1 1 0.173380 0.121587 0.977321
7.304410 -2.632660 -1.905090 21 21 21 -0.377332 -0.274832 -0.884357
7.308090 1.992960 -1.899550 12 12 12 -0.022983 0.031155 0.999250
7.337160 3.371990 -1.946620 19 19 19 -0.023344 0.044277 0.998747
7.333250 5.397160 -2.041800 25 25 25 -0.015255 0.045635 0.998842
7.376890 7.375250 -2.094570 29 29 29 -0.018818 -0.002713 0.999819
7.331850 9.399850 -2.111290 28 28 28 0.061033 -0.041520 0.997272
7.345180 10.861600 1.559410 142 142 142 0.025066 -0.999643 -0.009229
7.325590 10.861600 1.872020 122 122 122 0.030521 -0.995175 -0.093243
7.358140 10.255600 4.461000 4 4 4 -0.892904 -0.388954 -0.226796
7.324630 10.827900 5.812050 38 38 38 0.552408 -0.822577 0.134950
7.307530 13.129600 -0.273575 15 15 15 -0.249597 -0.334692 -0.908671
7.301020 11.437800 -0.116163 15 15 15 -0.145938 -0.520211 -0.841476
7.386960 11.504200 4.204640 19 19 19 -0.862188 -0.399464 0.311546
7.980710 11.861400 6.714840 1 1 1 0.688720 -0.719755 0.087282
7.346770 14.412100 -0.396710 39 39 39 -0.653816 -0.252757 -0.713189
7.533470 15.595300 -1.584170 16 16 16 -0.904192 -0.413184 -0.108244
8.130170 16.043501 6.520400 63 63 63 -0.337990 -0.288212 0.895933
7.311850 15.827900 11.701600 30 30 30 0.560857 -0.768663 0.307565
7.384380 15.879900 11.771300 45 45 45 0.589795 -0.758122 0.278194
7.315690 16.045099 13.797500 42 42 42 0.378231 -0.921648 0.086636
7.292870 16.096901 16.417999 68 68 68 0.415524 -0.907280 -0.064673
7.537600 16.362101 18.798201 72 72 72 0.051078 -0.985789 0.160034
7.400450 16.275999 19.769199 61 61 61 0.401131 -0.892934 -0.204361
7.400610 16.273500 21.768299 43 43 43 0.360204 -0.932622 0.021677
7.777330 16.708401 24.229401 16 16 16 0.393496 -0.914495 0.094127
7.329790 16.609100 26.116100 65 65 65 0.414024 -0.866199 -0.279790
7.538600 16.850201 29.131500 62 62 62 0.336877 -0.939356 -0.064217
7.303450 16.600700 30.081301 54 54 54 0.379331 -0.912023 -0.155959
8.274150 17.558599 15.522200 20 20 20 -0.263309 -0.250411 -0.931645
7.871150 17.376101 15.854700 39 39 39 0.244662 0.065541 -0.967391
7.406150 17.381800 19.197300 33 33 33 -0.041503 -0.011532 -0.999072
9.018490 17.396299 22.217899 9 9 9 0.474110 -0.875667 -0.091798
8.707890 17.376801 24.807899 18 18 18 0.453648 -0.880331 0.138639
7.699780 17.389799 25.960600 21 21 21 0.228829 -0.237956 -0.943936
8.303880 17.375299 29.472099 26 26 26 0.564000 -0.811249 -0.154204
8.686380 17.380301 30.939301 33 33 33 0.474521 -0.880237 0.003567
9.350280 -23.401800 6.869960 4 4 4 0.040432 -0.061933 -0.997261
9.430250 -22.607300 6.980280 4 4 4 0.111015 -0.069565 -0.991381
9.364420 -19.115200 5.703010 28 28 28 -0.928203 -0.371982 -0.008248
9.450190 -20.515699 6.992550 4 4 4 -0.098202 0.453577 0.885790
9.294450 -17.457600 14.964500 17 17 17 -0.154119 0.819360 0.552174
9.531410 -16.674700 17.434799 14 14 14 0.619431 0.784184 -0.036899
9.419910 -17.276699 17.899799 15 15 15 0.528531 0.117044 -0.840807
9.291540 -17.149599 22.618900 7 7 7 0.569869 -0.328526 -0.753206
9.496630 -16.869699 27.105200 10 10 10 0.260079 -0.064946 -0.963401
9.481580 -15.171200 4.821030 3 3 3 0.052695 0.547777 -0.834963
9.313460 -16.148100 13.682400 6 6 6 0.561733 0.380550 -0.734600
9.400260 -16.111000 13.764000 5 5 5 0.583278 0.384238 -0.715646
9.381870 -15.673300 16.541901 15 15 15 -0.023563 0.886151 0.462797
9.343860 -16.019600 18.119400 7 7 7 0.575124 0.426303 -0.698210
9.308050 -14.993100 20.187799 16 16 16 -0.424764 0.803272 0.417528
9.345790 -15.844300 22.504101 7 7 7 0.649103 0.146805 -0.746401
10.274700 -15.158900 25.440701 1 1 1 -0.920043 0.116885 -0.373978
9.537810 -16.504499 27.471500 12 12 12 0.365059 -0.443141 -0.818754
9.387840 -16.202499 31.032600 11 11 11 0.349135 0.024517 -0.936752
9.335210 -15.931100 35.559799 9 9 9 0.317472 -0.544014 -0.776698
11.036800 -14.581200 1.253370 136 136 136 -0.996522 -0.060098 -0.057730
9.353970 -14.637500 5.344160 14 14 14 -0.144064 0.201515 -0.968833
10.713900 -14.163400 12.264300 30 30 30 -0.369593 0.804065 0.465705
9.496470 -14.625400 14.230700 17 17 17 -0.434229 0.890186 -0.137895
10.177800 -14.222800 15.769100 18 18 18 -0.433283 0.901182 -0.011689
9.292710 -14.637400 18.208300 5 5 5 -0.460334 0.877385 -0.135234
9.756700 -14.274200 19.805300 10 10 10 -0.426310 0.903657 -0.040799
9.297820 -14.608600 22.213699 11 11 11 -0.458936 0.780741 -0.424054
10.000700 -13.983500 23.763201 5 5 5 -0.377463 0.923690 -0.065718
9.304590 -14.541300 26.209400 12 12 12 -0.222431 0.876230 -0.427487
9.303270 -14.541200 28.247900 11 11 11 -0.371719 0.925873 0.067704
9.366110 -14.401400 30.165001 9 9 9 -0.479969 0.764167 -0.430905
9.522950 -13.982500 32.981300 2 2 2 -0.456063 0.888953 -0.042061
9.321440 -13.988900 34.121700 6 6 6 -0.500920 0.860973 0.088341
9.305490 -13.890400 36.265598 24 24 24 -0.400940 0.914641 0.051752
9.498260 -13.988800 38.409698 40 40 40 0.050114 0.208052 -0.976833
9.337700 -10.683100 1.195720 6 6 6 -0.161240 -0.074785 -0.984078
9.313040 -12.600400 5.363350 16 16 16 0.129207 0.007198 -0.991592
10.738800 -12.632800 38.737202 12 12 12 -0.002423 0.259598 -0.965714
9.516280 -9.334920 -1.747220 67 67 67 -0.054152 0.997883 0.036026
9.315610 -10.209400 1.320060 15 15 15 -0.262831 -0.131327 -0.955862
9.307370 -9.435550 3.370470 54 54 54 -0.058109 0.993967 0.093019
9.291530 -10.606000 5.386530 16 16 16 0.079820 0.514074 -0.854024
9.290700 -10.211000 5.763990 38 38 38 0.054839 0.592136 -0.803970
9.311080 -9.395750 7.763890 70 70 70 -0.061276 0.998040 0.012693
9.728150 -8.626830 -1.749530 27 27 27 0.166919 0.464311 0.869801
9.693310 -4.912940 -0.668085 5 5 5 0.111310 0.428878 0.896479
9.296510 -3.470040 -1.030060 10 10 10 -0.044450 0.995515 0.083512
9.947380 -1.771110 -1.838260 14 14 14 -0.054104 0.320011 0.945868
9.339000 2.980400 -1.879490 15 15 15 -0.026633 0.045478 0.998610
9.328890 3.383190 -1.896420 18 18 18 -0.026983 0.049308 0.998419
9.396040 5.491090 -1.994140 22 22 22 -0.029986 0.046230 0.998481
9.332660 7.369310 -1.993300 47 47 47 -0.064422 -0.088312 0.994007
9.348670 10.709300 -1.974680 27 27 27 0.058441 -0.477725 0.876564
9.304960 9.904690 0.514436 9 9 9 -0.099657 -0.982544 0.157088
9.335660 10.372100 1.760620 9 9 9 -0.021596 -0.836179 0.548031
9.335540 10.799900 3.759510 148 148 148 0.062552 -0.998029 -0.005129
9.310880 11.603700 -1.781450 6 6 6 0.068115 -0.241930 -0.967900
10.172000 11.475900 -0.240166 16 16 16 -0.720252 0.621846 0.307483
10.895400 13.509000 -1.189040 13 13 13 -0.911640 0.410133 0.026537
9.704720 16.922501 11.617600 62 62 62 0.460184 -0.861650 0.213986
9.306510 16.859301 13.310500 68 68 68 0.403761 -0.907664 -0.114556
9.305240 16.856400 13.778200 37 37 37 0.402523 -0.912816 0.068865
9.332850 16.954700 15.804200 44 44 44 0.279069 -0.958598 0.056664
9.294330 17.341200 19.459600 50 50 50 0.475220 -0.833377 -0.282221
9.308950 17.107700 20.112400 62 62 62 0.431637 -0.898715 -0.077468
9.302900 17.352699 22.996901 63 63 63 0.413474 -0.903794 -0.110434
9.309100 17.362101 24.908600 70 70 70 0.270547 -0.957007 0.104603
11.176800 17.502600 9.012710 92 92 92 0.386935 -0.919294 0.071974
10.873300 17.554701 11.252700 88 88 88 0.449810 -0.888412 0.091627
10.244900 17.505501 12.000100 15 15 15 0.447209 -0.889845 -0.090449
9.785830 17.414200 14.769900 38 38 38 0.442199 -0.886621 0.135513
9.773470 17.442600 15.809600 44 44 44 0.414444 -0.905608 -0.090057
9.374740 17.387800 18.650299 28 28 28 0.481015 -0.868997 0.116055
9.535190 17.681999 21.666300 17 17 17 0.704812 -0.696269 0.135829
9.526170 17.611799 21.993401 24 24 24 0.631206 -0.761136 0.149169
9.511790 17.475901 24.216600 40 40 40 0.414291 -0.905210 0.094648
12.020000 -14.666300 13.008500 2 2 2 -0.941591 -0.322417 -0.097234
11.359900 -16.565701 14.170700 15 15 15 -0.405840 0.913503 -0.028394
11.495300 -14.657900 17.205000 2 2 2 -0.950842 -0.308148 -0.030723
11.302600 -16.441999 18.109301 17 17 17 -0.629235 0.776834 -0.024330
11.311900 -16.240801 22.688400 9 9 9 -0.637634 0.147381 -0.756110
11.535800 -14.947900 26.450701 14 14 14 0.069235 0.037014 -0.996913
11.290400 -14.672100 30.408199 10 10 10 0.052584 -0.067818 -0.996311
11.294400 -14.463000 1.305780 139 139 139 -0.973800 -0.227367 0.004165
11.437900 -14.312900 4.906410 2 2 2 -0.337265 0.859556 -0.383948
11.782400 -14.158100 13.065700 4 4 4 -0.999250 0.038700 0.001535
11.310500 -14.197900 14.488100 8 8 8 -0.336285 0.264536 -0.903844
11.435200 -14.430200 16.921101 3 3 3 -0.998145 -0.043965 -0.042111
11.379200 -14.547900 17.771900 3 3 3 -0.950485 -0.303299 -0.067734
11.314500 -14.062900 20.415100 17 17 17 -0.475487 0.816788 0.326756
11.469200 -14.441200 22.466999 8 8 8 0.204852 0.016465 -0.978654
11.464900 -13.404400 23.770800 5 5 5 -0.394825 0.918376 0.026425
11.310400 -14.618000 26.433901 14 14 14 0.081864 -0.070696 -0.994133
11.477200 -13.629700 28.736200 3 3 3 -0.797018 0.603241 -0.029367
11.309500 -14.620500 30.407400 10 10 10 0.054695 -0.068368 -0.996160
11.312700 -13.165600 31.791201 11 11 11 -0.406590 0.913470 -0.016057
11.298800 -13.118300 33.773998 1 1 1 -0.400891 0.914627 -0.052389
11.293500 -13.214900 37.271000 32 32 32 -0.532753 0.827703 0.176299
11.388000 -13.462100 37.933399 19 19 19 -0.758613 0.615294 -0.214290
11.291700 -12.598300 5.598230 13 13 13 -0.102263 -0.113048 -0.988313
12.525300 -10.779000 5.769730 13 13 13 0.132804 0.264578 -0.955176
13.224800 -12.635300 22.721800 16 16 16 -0.407737 0.910411 -0.070023
13.221100 -12.632600 23.797800 3 3 3 -0.398808 0.916763 -0.022316
12.992000 -12.637000 26.614201 9 9 9 -0.379913 0.921443 -0.081297
12.731300 -12.636100 28.042101 15 15 15 -0.384289 0.922681 0.031343
12.538900 -12.637100 30.587900 16 16 16 -0.392057 0.917869 -0.061705
12.535000 -12.634000 31.852100 2 2 2 -0.390743 0.920406 -0.013129
12.160900 -12.634700 34.563801 16 16 16 -0.391779 0.914423 -0.101682
12.028500 -12.625000 36.032700 8 8 8 -0.414325 0.909992 -0.015780
11.301600 -12.636200 38.687698 77 77 77 -0.170219 0.521495 -0.836103
13.091000 -11.521000 39.796299 9 9 9 -0.323342 0.896159 -0.303890
11.328300 -9.819370 -1.637660 39 39 39 0.329583 0.824336 -0.460267
11.320900 -9.864170 -0.229500 83 83 83 -0.867345 0.448216 -0.216366
11.293800 -9.256730 1.768780 73 73 73 -0.042476 0.998645 -0.030073
11.379400 -9.817140 4.687750 14 14 14 -0.256415 0.411954 0.874382
11.505800 -10.054300 6.066450 31 31 31 0.095290 0.729441 -0.677374
11.309000 -9.272820 7.768250 65 65 65 -0.062078 0.998004 0.011604
11.533500 -5.919240 -0.731990 5 5 5 -0.527534 0.331048 0.782378
11.470700 -4.182650 -1.291050 14 14 14 -0.507443 -0.315011 0.802041
12.732700 -4.534980 -0.243535 0 0 0 -0.855785 -0.172787 0.487623
11.303200 -1.939430 -1.807730 16 16 16 -0.055002 0.517502 0.853912
12.204100 -1.096070 0.585301 0 0 0 -0.003110 0.933056 -0.359717
12.752500 -1.210420 1.762300 0 0 0 -0.812211 0.358367 -0.460311
13.058100 -0.397662 -1.125850 0 0 0 -0.219491 -0.085895 0.971826
12.077500 -0.262051 1.600130 17 17 17 -0.738700 -0.363856 -0.567390
12.069100 -0.490207 1.794950 0 0 0 -0.743657 -0.387574 -0.544758
11.417700 3.158940 -1.834570 6 6 6 -0.025057 0.041285 0.998833
11.991100 2.050530 -0.228748 2 2 2 -0.098850 -0.813053 -0.573736
13.104400 3.288750 3.360990 0 0 0 -0.646662 -0.294428 0.703662
11.330500 3.569170 -1.850730 14 14 14 -0.026119 0.042851 0.998740
11.468700 6.916740 -2.033560 12 12 12 -0.007497 -0.156129 0.987708
13.282300 7.339330 4.183030 0 0 0 -0.989739 0.007831 -0.142672
13.032700 5.847530 6.940640 11 11 11 -0.987179 -0.058154 -0.148646
11.489200 7.389480 -1.891410 27 27 27 -0.032805 -0.128761 0.991133
13.285900 7.897020 3.661300 1 1 1 -0.987920 0.132110 -0.081003
13.286100 7.450310 4.154070 1 1 1 -0.990454 0.011327 -0.137377
13.032700 7.856140 6.106490 0 0 0 -0.989892 -0.063235 -0.126949
11.295000 10.183700 -1.432960 31 31 31 0.157370 -0.103418 0.982110
11.509300 9.813600 -0.085767 19 19 19 -0.013559 -0.975006 0.221765
11.465600 10.309600 1.757200 46 46 46 -0.014469 -0.852304 0.522846
11.312500 10.914300 3.771750 131 131 131 0.057167 -0.998353 -0.004871
11.465800 13.998700 -1.664270 16 16 16 -0.266805 0.209653 0.940670
12.903300 16.287100 -0.446224 29 29 29 -0.348337 -0.043719 0.936349
12.867200 16.283600 -0.219395 53 53 53 -0.366035 -0.083628 0.926836
14.013200 -14.690000 18.767700 9 9 9 0.235604 0.005981 -0.971831
13.836100 -12.784700 11.753600 4 4 4 -0.397511 0.916777 0.038796
13.511400 -12.999500 11.857500 4 4 4 -0.413972 0.908828 -0.051561
13.351400 -13.680200 14.248700 3 3 3 -0.137935 0.180626 -0.973832
13.304700 -12.900500 15.821600 6 6 6 -0.409656 0.909188 0.074557
13.349300 -14.569100 18.217600 6 6 6 0.276797 0.569363 -0.774086
13.329000 -12.732300 19.765400 4 4 4 -0.397679 0.917320 -0.019355
13.300800 -12.707000 21.768900 6 6 6 -0.399514 0.916039 -0.035512
14.500700 -12.717000 25.547400 4 4 4 -0.453357 0.845836 0.281121
14.222000 -12.793300 26.806900 14 14 14 -0.200951 -0.004211 -0.979592
13.290400 -12.678100 38.921398 57 57 57 0.074397 -0.052046 -0.995870
13.802900 -10.663000 4.740730 8 8 8 -0.620324 0.753126 -0.219086
13.466800 -11.442500 5.867890 7 7 7 0.104911 0.024177 -0.994188
14.235200 -12.631800 11.712100 7 7 7 -0.419730 0.907278 0.025972
14.268600 -12.629800 11.818400 6 6 6 -0.399041 0.916814 -0.014776
13.945000 -12.630000 14.814500 24 24 24 -0.273012 0.938958 -0.209336
13.910700 -12.632800 15.788200 6 6 6 -0.401256 0.915965 0.001465
13.698400 -12.631600 18.745701 9 9 9 -0.265810 0.841566 -0.470226
13.530100 -12.636300 20.094101 9 9 9 -0.404732 0.914415 -0.006068
13.488200 -12.629800 21.758900 7 7 7 -0.396318 0.917384 -0.036588
13.399300 -12.548300 23.770100 4 4 4 -0.410146 0.911803 -0.019895
13.303800 -12.554500 25.811399 6 6 6 -0.488686 0.871187 -0.047112
13.361500 -12.390500 28.052900 12 12 12 -0.403816 0.914837 -0.002610
13.293700 -12.391900 29.787100 4 4 4 -0.400734 0.915457 -0.036765
13.330300 -12.271200 31.795700 2 2 2 -0.398028 0.916864 -0.030553
13.292100 -12.237700 34.259602 2 2 2 -0.403404 0.912190 -0.071929
13.290400 -12.394200 37.503399 47 47 47 -0.249352 0.933621 0.257245
13.512800 -12.601700 38.253502 49 49 49 -0.062187 0.950337 -0.304945
14.006700 -11.186200 39.787701 12 12 12 -0.359741 0.871486 -0.333316
13.302800 -9.122360 -1.085260 62 62 62 -0.059611 0.998221 0.000653
13.304500 -9.726810 1.313840 10 10 10 -0.826716 0.385674 0.409629
13.485100 -9.198930 1.895130 28 28 28 -0.061554 0.987266 -0.146684
13.311500 -9.154590 3.816920 44 44 44 -0.041323 0.995324 0.087303
13.340000 -10.604100 5.866110 12 12 12 0.174556 0.140598 -0.974558
13.305200 -9.152420 7.759100 58 58 58 -0.058003 0.998284 0.008089
14.902500 -10.615600 10.283700 29 29 29 -0.108851 0.650410 0.751744
15.274000 -10.613900 39.317299 17 17 17 -0.013918 0.345012 -0.938495
15.244500 -10.620800 39.819500 14 14 14 -0.248484 0.826271 -0.505502
13.516800 -3.240530 -1.117850 11 11 11 0.012252 0.810400 0.585748
14.167800 -3.265610 -0.230445 6 6 6 -0.244070 0.885033 0.396418
13.672400 -1.054540 -0.611470 5 5 5 -0.259239 -0.826842 -0.499127
13.526100 -1.180530 1.600500 1 1 1 -0.486435 -0.865457 -0.119852
13.634400 0.064820 -1.171130 3 3 3 -0.119674 -0.232983 -0.965089
13.410700 1.998890 -0.626793 1 1 1 -0.094438 -0.422410 -0.901472
13.426700 2.295970 -0.102488 3 3 3 -0.563470 0.498990 0.658415
13.789100 2.732870 3.361760 114 114 114 -0.992212 -0.123692 -0.014669
13.777300 2.695020 3.759370 80 80 80 -0.989857 -0.099093 -0.101800
13.510500 4.255750 -1.825820 22 22 22 -0.095535 0.315517 0.944098
13.785900 3.424090 3.562540 0 0 0 -0.981756 -0.117825 -0.149242
13.529300 4.352650 4.292380 0 0 0 -0.984863 -0.096130 -0.144235
13.988700 7.013580 -1.954600 9 9 9 -0.128335 -0.601972 0.788137
13.537700 5.433540 3.587020 12 12 12 -0.993055 -0.081337 -0.085003
13.512600 5.403000 4.168780 1 1 1 -0.988810 -0.084187 -0.123155
13.333200 7.414410 -1.929460 29 29 29 0.045614 -0.819567 0.571165
13.537800 7.955320 1.566490 0 0 0 -0.727383 -0.685392 -0.033952
13.531500 7.861050 1.819290 2 2 2 -0.941907 0.242857 -0.232015
13.322400 7.493370 4.122080 1 1 1 -0.991765 0.016412 -0.127012
13.410900 10.425200 -1.642530 21 21 21 0.145436 -0.393682 0.907669
13.314800 10.109200 1.058770 7 7 7 0.021480 -0.967273 0.252828
13.317500 10.271600 1.756850 8 8 8 0.007798 -0.914764 0.403913
13.417400 11.036100 3.762120 116 116 116 0.061349 -0.997833 0.023799
14.030500 11.365800 -0.332149 0 0 0 0.003990 -0.998928 0.046113
13.366000 11.688700 0.223395 3 3 3 -0.282673 -0.894049 -0.347524
16.352800 -12.664100 1.866740 43 43 43 -0.954690 -0.282402 -0.093892
15.769000 -13.431300 5.359170 1 1 1 -0.926942 0.092010 -0.363749
15.755400 -13.420000 5.772060 13 13 13 -0.609998 -0.078573 -0.788498
15.324300 -13.394800 13.408500 1 1 1 -0.817433 -0.336934 -0.467204
15.290700 -13.535900 14.552300 2 2 2 -0.870609 -0.403554 0.281397
15.756900 -12.826700 17.713100 2 2 2 -0.994199 -0.087757 0.062182
15.528700 -14.389600 18.945601 5 5 5 0.112255 -0.117550 -0.986702
16.753500 -12.720900 22.567600 4 4 4 -0.470486 -0.006941 -0.882380
16.906401 -12.640200 27.101999 9 9 9 0.008706 -0.164081 -0.986408
15.515200 -12.704100 30.972700 3 3 3 0.074336 0.006823 -0.997210
15.762700 -11.707100 1.650300 19 19 19 -0.365476 -0.043063 0.929824
15.765400 -10.900900 1.768160 37 37 37 -0.189917 -0.008797 0.981761
15.417400 -11.941500 5.624090 10 10 10 -0.586853 -0.243791 -0.772120
15.360300 -11.928700 5.934440 8 8 8 -0.431846 -0.218212 -0.875153
15.303500 -12.168100 11.549800 12 12 12 -0.395064 0.918624 0.007355
15.300300 -12.547400 13.211000 1 1 1 -0.778884 0.503926 0.373360
15.306900 -12.141100 13.759400 6 6 6 -0.712164 0.701826 -0.016203
15.369300 -12.446900 17.006300 2 2 2 -0.527710 0.746358 0.405551
15.513400 -12.403900 18.092899 3 3 3 -0.749136 0.626389 -0.215479
15.364500 -11.848700 19.767500 4 4 4 -0.389249 0.920298 -0.039204
15.409100 -11.947500 22.966000 11 11 11 -0.132073 0.859921 -0.493044
15.480700 -12.036200 25.611000 4 4 4 -0.425360 0.895684 0.129687
15.529500 -12.391200 26.947100 14 14 14 0.246254 0.240277 -0.938950
15.469200 -12.250100 29.721500 1 1 1 0.086374 0.996251 -0.004804
15.327700 -12.583000 30.903799 6 6 6 0.078340 0.122838 -0.989330
15.292400 -11.408200 32.167702 3 3 3 -0.404716 0.914227 -0.019849
15.386900 -11.330800 33.819099 3 3 3 -0.396351 0.917536 -0.032149
15.316500 -11.490200 37.744801 39 39 39 -0.407324 0.866568 0.288351
15.295200 -11.932200 39.168900 75 75 75 0.137485 -0.070322 -0.988004
15.302200 -9.006670 -1.043440 54 54 54 -0.057941 0.998317 -0.002385
15.297300 -9.004140 -0.239512 56 56 56 -0.058933 0.998257 -0.003293
15.461700 -9.022810 1.770030 54 54 54 -0.060091 0.998191 0.002146
15.346600 -10.612600 4.617950 8 8 8 -0.808867 -0.567199 -0.154983
15.490900 -9.706970 6.666350 21 21 21 -0.331205 0.317382 -0.888579
15.298100 -9.034000 7.770920 50 50 50 -0.047845 0.990529 -0.128699
17.023800 -10.625300 32.520500 10 10 10 -0.402865 0.915255 -0.002740
16.689600 -10.623300 35.116600 13 13 13 -0.405340 0.906968 -0.114491
16.520399 -10.634000 36.561901 10 10 10 -0.407324 0.913241 -0.008878
15.516000 -10.637100 39.226601 71 71 71 -0.027004 0.359925 -0.932590
15.292400 -10.598400 39.807899 14 14 14 -0.257577 0.791251 -0.554595
15.525000 -2.966100 -1.630680 4 4 4 -0.336300 0.300733 -0.892447
15.520700 -1.925790 -1.546040 4 4 4 -0.641948 -0.020577 -0.766472
15.295100 -0.389137 -1.432420 3 3 3 -0.274311 -0.214798 -0.937345
15.941400 2.459130 -1.704080 3 3 3 0.054381 0.068360 0.996177
15.340800 4.327630 -1.774660 31 31 31 -0.041343 0.108781 0.993206
15.760800 7.340510 -1.892060 6 6 6 0.003032 -0.141238 0.989971
15.477000 9.279970 -1.808520 6 6 6 -0.027477 -0.053970 0.998164
15.469800 11.293900 -1.832670 21 21 21 -0.695751 0.496027 -0.519507
15.394900 10.570100 0.859103 3 3 3 0.348237 -0.786334 -0.510303
15.530400 11.158000 2.668810 9 9 9 0.280820 -0.861611 0.422807
15.309300 11.144700 3.762520 106 106 106 0.053965 -0.997038 0.054795
16.225700 11.721700 -0.830194 6 6 6 0.114035 -0.752535 0.648604
17.285500 12.581900 7.064950 1 1 1 -0.175343 -0.978821 -0.105664
17.741501 -12.740400 15.254700 9 9 9 -0.541282 -0.384371 -0.747845
17.302299 -12.762100 19.169600 9 9 9 0.075110 0.003291 -0.997170
18.819799 -11.465800 6.489940 4 4 4 0.090750 0.130452 -0.987293
17.294600 -11.299400 11.215800 16 16 16 -0.336009 0.939758 0.062873
