ply
format ascii 1.0
element vertex 711
property float x
property float y
property float z
property uchar red
property uchar green
property uchar blue
property float nx
property float ny
property float nz
end_header
18.072201 106.077003 18.034100 51 51 51 0.340343 -0.932546 0.120514
18.088100 106.166000 19.719400 20 20 20 0.383390 -0.922191 0.050760
17.958700 106.213997 22.782200 54 54 54 0.287112 -0.957526 0.026673
17.963400 106.240997 23.637699 62 62 62 0.240850 -0.966270 -0.091174
20.414200 -15.941000 7.081820 0 0 0 0.150755 0.962442 0.225784
20.030800 -15.888800 9.524030 1 1 1 -0.049942 0.994022 0.097089
20.128300 -16.381100 11.118900 0 0 0 0.389394 0.902877 0.182171
21.631901 -14.013300 -0.495179 2 2 2 -0.576096 -0.043616 0.816217
20.945200 -11.530500 -0.664509 17 17 17 -0.095743 0.048555 0.994221
20.004400 -10.334000 -0.768093 2 2 2 -0.173984 -0.056598 0.983121
19.967699 -9.286530 -0.805256 13 13 13 -0.477398 -0.522624 0.706368
20.533501 -8.564710 0.449783 17 17 17 -0.555143 0.019689 0.831522
20.325199 -6.956570 -0.821371 24 24 24 -0.451950 0.880198 0.144885
20.059500 -7.147990 0.106691 160 160 160 -0.485253 0.874351 0.006362
20.344999 0.143066 3.844960 22 22 22 -0.602254 -0.580047 -0.548485
20.790300 1.060350 3.948360 14 14 14 -0.784745 -0.312653 -0.535186
21.372601 6.316840 -1.010610 2 2 2 -0.050360 0.023555 0.998453
20.473900 8.606540 -1.098010 4 4 4 -0.043502 0.019967 0.998854
19.926399 10.524900 -1.169480 1 1 1 -0.083966 -0.018599 0.996295
20.067200 11.220000 -1.211960 21 21 21 -0.158611 -0.048359 0.986156
20.845501 13.143200 -0.962360 12 12 12 -0.125249 -0.049255 0.990902
20.121300 16.004499 -1.004030 8 8 8 -0.782997 -0.118240 0.610685
20.377899 16.460199 1.200160 4 4 4 -0.871336 -0.433489 -0.229916
20.342699 16.431499 1.856650 95 95 95 -0.896111 -0.443638 -0.013046
19.935600 15.449700 3.612800 1 1 1 0.192336 -0.184120 -0.963902
19.888901 16.780701 -1.003940 1 1 1 -0.612275 -0.224689 0.758046
20.120899 16.975300 1.498770 90 90 90 -0.913560 -0.392471 -0.106653
20.131500 16.726999 2.532310 62 62 62 -0.850371 -0.516132 -0.102355
19.914101 16.928600 3.652700 5 5 5 -0.267970 -0.959459 -0.087352
20.970200 18.656799 77.259804 11 11 11 -0.134365 -0.981802 -0.134203
21.874399 18.641300 77.940804 5 5 5 -0.499575 -0.824744 0.264995
19.945499 18.520300 79.850899 23 23 23 -0.049025 -0.945313 -0.322459
19.941401 18.467699 84.303398 27 27 27 0.131535 -0.277855 -0.951575
20.701599 20.428499 -0.718731 14 14 14 0.047956 -0.189429 -0.980723
21.030100 18.809700 -0.257493 17 17 17 -0.291121 0.298527 0.908917
20.906500 18.934999 6.207450 22 22 22 -0.100792 -0.765422 0.635586
21.879601 20.510500 27.352400 48 48 48 -0.953939 -0.283021 -0.099498
21.623699 20.632000 29.347900 35 35 35 -0.948332 -0.298546 -0.107413
21.630199 19.970699 30.868799 6 6 6 -0.909620 -0.370400 -0.188135
21.377600 20.189899 33.153500 37 37 37 -0.932732 -0.319815 -0.166521
21.117901 20.449600 34.832401 25 25 25 -0.952267 -0.291945 -0.089193
20.882500 20.268700 37.601200 21 21 21 -0.950772 -0.294157 -0.097490
20.882500 19.916599 38.640999 36 36 36 -0.895559 -0.426890 -0.125455
20.374500 20.636200 41.400200 23 23 23 -0.942976 -0.297876 -0.148546
20.375799 19.975300 43.474899 17 17 17 -0.956342 -0.285074 -0.064371
20.131800 20.083401 45.195301 15 15 15 -0.930992 -0.354879 -0.085531
20.131100 19.581200 46.879200 19 19 19 -0.837844 -0.522982 -0.156549
20.087799 19.588600 47.883400 24 24 24 -0.922063 -0.346978 -0.171483
20.074699 19.427099 49.619598 10 10 10 -0.800674 -0.577273 -0.160238
20.013901 19.414200 51.744400 12 12 12 -0.707131 -0.706765 0.021174
19.919201 19.419201 54.448200 21 21 21 -0.529956 -0.841344 -0.106236
19.928400 19.326900 57.598900 33 33 33 -0.447732 -0.894166 0.001803
19.964300 19.267200 57.844501 5 5 5 -0.403105 -0.909830 -0.098567
20.129299 19.181601 60.521198 5 5 5 -0.273501 -0.949955 -0.150937
20.109600 19.161501 62.511799 5 5 5 -0.247741 -0.967155 -0.056882
20.108999 19.208000 65.173401 22 22 22 -0.135594 -0.987938 -0.074779
19.975901 19.175800 65.901802 29 29 29 -0.130501 -0.990844 -0.034616
20.110500 19.158501 67.954803 35 35 35 -0.124341 -0.991860 -0.027449
19.971701 18.974600 71.524498 14 14 14 -0.190024 -0.979277 -0.070049
21.726200 18.899500 72.172897 5 5 5 -0.259887 -0.964829 -0.039544
20.669399 18.955700 74.882103 3 3 3 -0.196864 -0.979228 -0.048556
19.904600 18.955999 77.004501 21 21 21 -0.118896 -0.990195 -0.073331
19.962999 18.867399 77.799698 5 5 5 -0.107590 -0.993186 -0.044788
19.926500 18.738501 79.845100 21 21 21 -0.093428 -0.985244 -0.143407
19.991400 18.748199 84.195099 10 10 10 0.121149 -0.349304 -0.929144
19.915001 22.227301 -0.694359 61 61 61 -0.248829 -0.030187 0.968077
20.988800 20.711800 -0.358044 50 50 50 0.027782 -0.095430 0.995048
20.401100 22.544901 2.733610 4 4 4 -0.151318 -0.014390 0.988380
21.878401 22.461000 21.476700 13 13 13 -0.959778 -0.271884 -0.070039
21.882401 21.964300 23.187799 29 29 29 -0.952409 -0.290565 -0.092137
21.621500 21.914700 25.341400 7 7 7 -0.950359 -0.291352 -0.109231
21.378700 22.164000 27.340799 46 46 46 -0.950376 -0.293909 -0.101991
21.121599 22.458799 29.271400 37 37 37 -0.950661 -0.287711 -0.116046
20.865999 22.291300 31.453400 3 3 3 -0.948045 -0.310095 -0.071076
20.626101 22.652800 33.131199 32 32 32 -0.945592 -0.296771 -0.133355
20.625900 21.980101 35.159199 23 23 23 -0.948290 -0.300008 -0.103637
20.370399 22.201799 36.311100 2 2 2 -0.940980 -0.303911 -0.148980
20.127399 22.434299 38.613602 23 23 23 -0.945916 -0.296894 -0.130753
20.115000 21.479700 41.551899 19 19 19 -0.943923 -0.314061 -0.101858
20.116800 20.946600 42.508701 1 1 1 -0.962788 -0.268907 -0.026993
20.127001 20.694300 43.905201 30 30 30 -0.944670 -0.296289 -0.140752
19.974300 20.691401 46.138199 25 25 25 -0.942201 -0.280029 -0.183959
20.691700 24.111200 -0.544522 1 1 1 -0.202102 -0.051292 0.978020
21.831600 24.252800 -0.371613 1 1 1 -0.217269 -0.055583 0.974528
20.797001 22.864201 2.718110 5 5 5 0.110506 0.016645 -0.993736
21.881100 23.215401 19.402700 62 62 62 -0.952608 -0.288354 -0.096902
21.621201 23.459999 21.422400 30 30 30 -0.951253 -0.290054 -0.104821
21.632200 22.716801 23.194300 19 19 19 -0.951936 -0.296150 -0.078182
21.382799 22.904100 24.925301 25 25 25 -0.944256 -0.309193 -0.113052
21.127899 22.976400 27.531500 70 70 70 -0.949376 -0.296712 -0.103185
20.856400 23.202299 29.296400 18 18 18 -0.937069 -0.332949 -0.105104
20.582701 23.132200 31.433201 1 1 1 -0.909268 -0.410920 -0.066150
20.349100 23.333000 33.555000 6 6 6 -0.923933 -0.372293 -0.088013
20.372101 22.710199 35.552700 39 39 39 -0.948000 -0.290450 -0.130138
20.128599 22.901100 36.919899 8 8 8 -0.933255 -0.355479 -0.051672
20.131500 22.677900 38.254799 43 43 43 -0.949383 -0.285724 -0.130510
19.919901 22.778900 39.643002 24 24 24 -0.949777 -0.304200 -0.073386
20.545401 26.193300 -0.299624 28 28 28 0.042008 -0.574114 0.817697
20.121401 27.822100 -0.201172 18 18 18 -0.157649 -0.899334 -0.407854
20.112101 27.225800 2.055150 31 31 31 0.114547 -0.959664 0.256755
20.100000 27.064600 3.646830 36 36 36 0.148664 -0.984414 0.093962
20.625700 27.411800 7.390380 43 43 43 -0.789614 -0.570298 -0.226428
19.923201 27.111099 7.861880 36 36 36 -0.010961 -0.983122 -0.182623
19.916700 27.171600 10.681500 33 33 33 -0.038591 -0.999043 -0.020585
20.132700 27.173401 13.500700 48 48 48 -0.361398 -0.930290 -0.062866
20.129900 26.956900 14.156300 48 48 48 -0.159068 -0.987238 0.007714
19.992500 26.911100 15.643500 54 54 54 -0.246345 -0.963348 -0.106181
19.924200 26.817301 17.629101 37 37 37 -0.367630 -0.928627 -0.049998
19.970900 26.878300 19.653799 41 41 41 0.152296 -0.988129 -0.020179
19.940901 26.907000 21.613800 33 33 33 0.100714 -0.994915 -0.000466
19.919300 26.947399 23.629900 32 32 32 0.141486 -0.989924 0.005689
19.893299 26.982401 25.632299 29 29 29 0.271633 -0.962219 0.018701
19.935900 27.038200 27.610201 37 37 37 0.281151 -0.959512 0.017070
19.909500 27.072701 29.640800 27 27 27 0.281061 -0.959351 0.025512
19.888700 27.113600 31.643700 26 26 26 0.283436 -0.958797 0.019314
20.130501 27.223400 33.649601 20 20 20 0.282510 -0.958993 0.022829
19.920500 27.222799 35.701000 23 23 23 0.283025 -0.958813 0.023968
19.887501 27.245701 37.614101 20 20 20 0.284344 -0.958494 0.020938
19.932600 27.305700 39.655102 25 25 25 0.283094 -0.958944 0.016847
19.972601 27.358601 41.708500 12 12 12 0.280365 -0.959686 0.019956
20.085699 27.440901 44.007099 11 11 11 0.283044 -0.958878 0.020947
20.010401 27.478201 46.409901 12 12 12 0.293341 -0.955778 0.020960
19.966900 27.490299 48.362999 10 10 10 0.277841 -0.960415 0.020192
20.002899 27.538300 50.034199 10 10 10 0.277990 -0.960350 0.021198
19.971901 27.568800 51.659500 9 9 9 0.279659 -0.959785 0.024588
20.008200 27.617300 53.636501 11 11 11 0.277736 -0.960427 0.021063
19.993900 27.670200 55.641998 5 5 5 0.274263 -0.961471 0.018819
20.029400 27.717899 57.670399 6 6 6 0.277565 -0.960416 0.023622
19.929300 27.721800 60.226501 7 7 7 0.249697 -0.968211 0.014804
20.102900 27.664499 63.238400 34 34 34 0.156874 -0.987474 -0.016886
20.245501 27.570499 64.203796 8 8 8 0.103891 -0.993918 -0.036525
19.959101 27.686701 65.907097 14 14 14 0.216805 -0.976201 -0.005279
20.040899 34.153702 -0.149909 17 17 17 0.057619 -0.589392 0.805790
20.684099 35.350399 0.501140 12 12 12 0.055862 -0.437851 0.897310
20.958900 107.453003 19.992399 20 20 20 0.415012 -0.909101 0.036065
20.825100 107.483002 21.667700 42 42 42 0.409716 -0.911571 0.034236
20.539000 107.453003 24.302299 32 32 32 0.413657 -0.909661 0.037483
23.178499 -21.522800 0.993418 1 1 1 -0.094945 -0.043401 -0.994536
23.822800 -22.798500 6.881830 1 1 1 -0.870704 -0.311466 -0.380610
23.020901 -19.662600 -0.265833 0 0 0 -0.797742 0.113003 0.592316
23.373800 -15.521400 0.840638 83 83 83 -0.914559 -0.401861 -0.045705
23.375099 -15.608300 1.636550 57 57 57 -0.914628 -0.401879 -0.044142
22.517500 -13.488700 -0.430053 5 5 5 -0.962800 -0.230130 0.141618
22.631399 -13.789400 0.644050 99 99 99 -0.950522 -0.306573 0.050201
22.613701 -13.897100 1.804940 4 4 4 -0.986813 -0.161120 0.015530
21.901501 -12.673000 -0.539419 2 2 2 -0.657049 0.025724 0.753409
22.353701 -13.048800 0.056502 29 29 29 -0.942995 -0.054912 0.328245
21.897400 -11.068600 -0.580114 2 2 2 -0.079833 0.032886 0.996266
23.451599 -7.374140 0.826217 82 82 82 0.094727 0.906305 0.411872
22.060101 -6.936170 -0.355624 42 42 42 0.007750 0.999734 -0.021741
22.926901 -2.236550 1.416060 4 4 4 -0.481853 0.353509 -0.801779
22.838400 -2.316250 1.951950 3 3 3 -0.520538 0.316076 -0.793181
22.980600 -0.994968 2.418860 3 3 3 -0.127659 0.719057 -0.683125
21.975100 4.238470 -0.941594 0 0 0 -0.057753 0.020765 0.998115
21.958401 4.926460 -0.941859 4 4 4 -0.045112 0.029962 0.998532
21.980499 6.736760 -1.012100 15 15 15 -0.063939 0.032625 0.997420
22.480801 9.618010 -1.061080 2 2 2 -0.076873 -0.083755 0.993517
22.032600 10.732700 -0.954762 6 6 6 -0.101589 -0.076807 0.991857
22.248100 13.108400 -0.852470 0 0 0 -0.121052 -0.022905 0.992382
22.986099 14.735700 -0.807786 3 3 3 -0.285579 0.077012 0.955256
21.941299 16.963200 -0.504067 15 15 15 0.241316 -0.970001 -0.029417
21.920000 16.989000 0.498792 13 13 13 0.270217 -0.958437 0.091548
22.304199 17.420900 2.620640 16 16 16 0.484476 -0.863244 0.141751
23.861601 18.407499 60.916401 17 17 17 -0.508381 -0.858697 -0.064716
23.631701 18.367800 63.537102 33 33 33 -0.459982 -0.881935 -0.102989
23.352600 18.434000 66.259598 37 37 37 -0.359287 -0.929280 -0.085743
23.129601 18.069599 69.046501 30 30 30 -0.440917 -0.896045 -0.051911
22.807100 18.615200 71.698196 23 23 23 -0.303500 -0.952098 -0.037376
22.592899 18.341400 74.170898 11 11 11 -0.398327 -0.914251 -0.074032
22.117399 18.139099 77.453102 11 11 11 -0.596891 -0.799698 -0.064849
22.087999 18.114700 77.951302 13 13 13 -0.578979 -0.811143 -0.082650
21.971001 18.343000 80.048698 23 23 23 -0.187484 -0.982263 -0.003151
22.092100 17.974899 84.800003 7 7 7 0.117156 -0.410150 -0.904462
22.132000 20.099400 -0.740694 14 14 14 -0.077750 0.023698 -0.996691
22.120800 20.088900 -0.364704 38 38 38 -0.173662 -0.068877 0.982394
23.732300 19.367201 4.944020 34 34 34 -0.695833 -0.067260 0.715047
21.957800 19.987101 6.906880 14 14 14 0.180329 -0.975077 0.129255
23.871201 20.396200 8.185570 78 78 78 -0.845823 -0.499079 0.188423
23.593000 20.412399 10.907100 70 70 70 -0.895489 -0.439772 0.068555
23.624300 19.824200 12.276800 65 65 65 -0.219056 -0.963282 -0.155248
23.344900 19.788000 15.085200 66 66 66 -0.167762 -0.984482 -0.051488
23.132299 20.063000 16.445400 66 66 66 -0.686514 -0.726337 0.033671
22.881701 19.944700 19.403601 90 90 90 -0.889487 -0.405783 -0.210127
22.627899 19.972300 21.546000 9 9 9 -0.944394 -0.325840 -0.044140
22.373699 20.200100 23.272400 10 10 10 -0.939516 -0.338931 -0.049339
22.122200 20.377899 25.343800 26 26 26 -0.949051 -0.299477 -0.098063
22.079599 19.730101 27.528601 45 45 45 -0.891650 -0.451965 -0.026215
22.070000 19.721399 27.655399 40 40 40 -0.873297 -0.485746 -0.037469
22.069099 19.619801 30.090401 36 36 36 -0.698981 -0.715056 -0.010959
21.888599 19.555000 32.951599 27 27 27 -0.618912 -0.775240 -0.126300
22.132799 19.473801 34.330399 8 8 8 -0.373645 -0.927388 -0.018455
22.026501 19.479200 35.715000 26 26 26 -0.323060 -0.940030 -0.109438
21.906500 19.468700 38.412300 36 36 36 -0.393466 -0.912662 -0.110601
21.969900 19.375700 41.296101 14 14 14 -0.178637 -0.983766 -0.017094
21.946899 19.354401 42.594700 17 17 17 -0.239895 -0.970561 -0.021475
22.066299 19.308100 44.059502 14 14 14 -0.100459 -0.994752 -0.019399
22.102699 19.291700 46.353001 17 17 17 -0.115379 -0.992725 -0.034432
21.925501 19.229500 49.509800 35 35 35 -0.116551 -0.992348 -0.040756
21.956600 19.207899 49.707298 11 11 11 -0.107734 -0.993204 -0.044034
21.899099 19.204500 52.259800 37 37 37 -0.119941 -0.992395 -0.027683
22.078501 19.120199 54.335701 25 25 25 -0.112171 -0.993627 -0.011057
21.943001 19.098101 57.273602 8 8 8 -0.108914 -0.993646 -0.028379
21.954500 19.107901 57.661400 8 8 8 -0.109637 -0.993599 -0.027209
21.892401 19.051901 60.486000 13 13 13 -0.112292 -0.993500 -0.018642
21.910999 18.969700 62.083000 2 2 2 -0.088057 -0.996022 -0.013683
22.075701 18.916401 64.157303 5 5 5 -0.109994 -0.993776 -0.017611
22.021500 18.915001 65.769997 6 6 6 -0.163880 -0.984962 -0.054712
22.381599 18.788700 69.038597 8 8 8 -0.263676 -0.964600 0.004664
22.770800 18.726299 71.602898 10 10 10 -0.298073 -0.954409 0.015992
22.162201 18.792999 71.636299 6 6 6 -0.282931 -0.959083 0.010465
21.911699 18.721201 77.179604 18 18 18 -0.184613 -0.718967 -0.670078
21.945400 18.748301 80.043404 18 18 18 -0.000238 -0.984365 0.176140
23.132401 18.676901 84.870399 12 12 12 0.168484 0.122797 -0.978026
22.415199 20.925900 -0.282744 4 4 4 -0.162810 -0.167853 0.972275
23.630501 21.951000 4.984500 15 15 15 -0.959091 -0.280758 -0.036319
23.631399 21.839100 5.616420 71 71 71 -0.957996 -0.281643 -0.054050
23.039700 21.023701 7.618700 16 16 16 -0.566511 -0.231570 0.790848
23.132700 21.974300 11.022300 115 115 115 -0.957084 -0.289778 -0.004315
22.665501 22.582600 13.608500 63 63 63 -0.952837 -0.288162 -0.095207
22.613800 22.648199 13.874500 67 67 67 -0.952095 -0.290174 -0.096509
22.372499 22.462000 16.717501 33 33 33 -0.941308 -0.337239 -0.014470
22.115299 22.201401 19.507799 2 2 2 -0.952379 -0.287099 -0.102704
22.127501 21.713499 21.369101 29 29 29 -0.950918 -0.292958 -0.099651
22.128201 21.172800 23.184799 32 32 32 -0.957290 -0.272566 -0.096456
22.131201 20.695999 24.229099 45 45 45 -0.950077 -0.293544 -0.105763
21.923901 20.711901 26.506399 20 20 20 -0.956833 -0.273641 -0.097930
21.945101 24.622101 -0.332089 1 1 1 -0.355876 -0.211135 0.910370
21.903700 23.839300 3.091130 22 22 22 0.275207 -0.871463 -0.405971
23.125900 23.695601 5.055280 69 69 69 -0.959585 -0.278691 -0.039093
23.128599 23.579800 5.618790 68 68 68 -0.958161 -0.282794 -0.044225
22.870701 23.727400 8.077310 69 69 69 -0.949314 -0.296987 -0.102960
22.622000 23.708300 10.703300 69 69 69 -0.949141 -0.298168 -0.101132
22.358299 23.663200 13.424900 64 64 64 -0.951609 -0.291063 -0.098598
22.374399 23.560499 13.611700 71 71 71 -0.952674 -0.288321 -0.096349
22.129400 23.418800 16.374599 65 65 65 -0.931512 -0.358082 -0.063735
22.112900 22.818199 18.655199 21 21 21 -0.945824 -0.293183 -0.139501
21.916300 22.961599 19.811399 20 20 20 -0.950384 -0.297562 -0.090702
22.416901 25.220301 -0.265540 1 1 1 -0.038079 -0.270083 0.962084
22.989599 24.773100 3.143440 25 25 25 -0.681010 -0.475820 -0.556616
23.474001 25.856701 24.258301 54 54 54 0.568192 0.177250 -0.803580
21.916201 27.023001 0.044255 33 33 33 -0.319694 -0.928318 0.189793
22.018700 27.085501 1.634410 39 39 39 -0.038844 -0.999199 -0.009572
21.936800 27.109301 3.636190 37 37 37 0.116165 -0.993166 0.011225
21.916901 27.151600 5.637480 38 38 38 0.285932 -0.957991 0.022253
21.901800 27.206400 8.044770 26 26 26 0.286741 -0.957695 0.024486
21.928499 27.238300 9.641360 41 41 41 0.285413 -0.958222 0.018725
21.892300 27.268000 11.643200 35 35 35 0.285854 -0.958078 0.019360
22.023100 27.353001 13.648200 34 34 34 0.285099 -0.958203 0.023763
21.912001 27.361799 15.612700 35 35 35 0.284765 -0.958377 0.020562
21.969299 27.431601 17.651501 38 38 38 0.285841 -0.958055 0.020608
21.936701 27.456600 19.620501 34 34 34 0.284589 -0.958457 0.019196
21.909100 27.487000 21.622400 34 34 34 0.283670 -0.958659 0.022473
21.886499 27.526600 23.615299 27 27 27 0.284019 -0.958593 0.020787
21.936199 27.587200 25.642099 29 29 29 0.283669 -0.958751 0.018115
21.983700 27.645000 27.646400 25 25 25 0.284096 -0.958617 0.018523
21.950399 27.675100 29.614599 20 20 20 0.285842 -0.957934 0.025628
21.927200 27.717600 31.631399 24 24 24 0.284880 -0.958381 0.018706
21.901899 27.754400 33.675098 21 21 21 0.284632 -0.958383 0.022080
21.885201 27.800501 35.686298 15 15 15 0.256491 -0.966313 0.021263
21.932899 27.859100 37.698200 18 18 18 0.281166 -0.959524 0.016097
21.975201 27.911100 39.619801 17 17 17 0.189418 -0.974272 0.122130
21.960899 27.962200 42.326199 12 12 12 0.156537 -0.962485 0.221625
22.018999 27.893400 44.016102 37 37 37 0.276308 -0.960986 -0.012606
22.006901 26.808300 47.000900 24 24 24 -0.259519 -0.779459 -0.570170
22.040501 34.512600 0.014782 12 12 12 0.062836 -0.566569 0.821615
23.463900 108.642998 20.412901 39 39 39 0.423752 -0.905379 0.026888
23.620399 108.696999 20.186600 16 16 16 0.419220 -0.907206 0.035108
23.334299 108.698997 23.585501 61 61 61 0.509781 -0.857744 0.066324
23.334101 108.696999 23.734900 61 61 61 0.527575 -0.846791 0.067894
25.570801 -23.921900 2.629890 1 1 1 -0.789620 -0.274391 -0.548826
25.482901 -24.325500 6.926300 0 0 0 -0.898813 -0.366137 -0.240995
24.475100 -23.544701 8.139820 0 0 0 -0.874159 -0.400602 -0.274526
24.374701 -22.978901 4.118480 3 3 3 0.574790 0.727768 0.374126
24.306700 -23.202700 6.563860 0 0 0 -0.752078 -0.570104 -0.330697
24.452200 -22.709000 7.760360 0 0 0 -0.904466 -0.337180 -0.261250
25.872200 -20.355600 0.056349 2 2 2 -0.578466 -0.268928 -0.770100
24.376400 -17.781300 0.389089 74 74 74 -0.923144 -0.382055 -0.042895
24.120701 -17.361799 2.133530 255 255 255 -0.918730 -0.392529 -0.043076
24.127800 -17.277000 1.029080 68 68 68 -0.918702 -0.392648 -0.042589
24.127600 -17.321899 1.638600 150 150 150 -0.919954 -0.389409 -0.045220
24.435801 -14.223200 1.546470 1 1 1 -0.192881 0.472490 -0.859971
23.919901 -13.446000 2.368870 35 35 35 -0.278686 0.934606 -0.221011
24.081600 -11.497300 -0.408704 4 4 4 -0.093569 0.420281 0.902557
23.905300 -12.616700 1.104860 29 29 29 -0.279566 0.806034 0.521683
23.917400 -13.284300 1.982230 6 6 6 -0.149939 0.751875 0.642029
25.203400 -11.612500 8.744670 11 11 11 -0.316041 0.947783 0.042719
23.885201 -10.854400 -0.456227 24 24 24 -0.187551 0.352031 0.917005
23.919901 -10.942200 -0.373933 6 6 6 -0.172657 0.339352 0.924678
24.506901 -7.637380 -0.442345 97 97 97 0.019811 0.007252 0.999777
24.247000 -7.523310 0.798141 134 134 134 -0.286693 -0.633003 -0.719107
24.785400 -6.845040 -0.517440 0 0 0 -0.105130 -0.271496 -0.956680
24.040600 -4.974630 -0.602824 0 0 0 0.000961 0.162932 0.986637
24.686399 -4.851970 0.394784 2 2 2 -0.585115 -0.022428 -0.810640
24.438999 -2.538810 -0.678251 1 1 1 -0.783243 -0.357789 -0.508446
24.367599 -2.285320 0.863343 2 2 2 -0.618612 0.081886 -0.781418
23.988701 4.253930 -0.813477 0 0 0 -0.055042 0.034037 0.997904
24.327000 6.268340 -0.860931 2 2 2 -0.045178 0.024005 0.998690
23.903400 7.688050 -0.904739 1 1 1 -0.042898 0.020699 0.998865
24.828600 8.155790 8.849460 4 4 4 -0.359485 -0.885139 -0.295466
24.014000 9.989110 -0.871701 28 28 28 -0.096914 -0.052641 0.993900
24.543100 9.422110 0.087945 64 64 64 -0.941092 -0.271431 0.201672
24.382601 9.960910 3.141690 86 86 86 -0.396891 0.900896 -0.175681
24.728300 9.921790 4.138330 2 2 2 0.304220 -0.950247 -0.066942
24.369600 9.632120 8.602610 1 1 1 -0.709514 -0.694329 -0.120403
24.336599 11.402100 -0.746097 10 10 10 -0.085640 -0.000226 0.996326
24.827000 10.953200 3.605620 3 3 3 -0.707806 0.578516 -0.405378
24.745300 10.954400 3.657190 13 13 13 -0.699073 0.569913 -0.431852
23.946699 13.428300 -0.729387 2 2 2 -0.145945 -0.236328 0.960650
24.341600 14.424300 -0.240441 41 41 41 -0.681064 0.254048 0.686740
24.122299 14.831900 -0.671302 1 1 1 -0.670156 0.160403 0.724681
24.115000 16.330700 -0.340823 59 59 59 -0.387643 -0.166844 0.906585
25.122900 16.646400 1.648400 16 16 16 -0.994609 0.021758 -0.101389
23.907101 16.764900 -0.641738 31 31 31 -0.452627 -0.141868 0.880342
23.890699 16.753401 -0.347886 56 56 56 -0.334505 -0.191903 0.922648
25.025700 16.762899 1.649400 16 16 16 -0.951616 0.277828 -0.131293
25.862499 18.451900 41.265499 9 9 9 -0.678058 -0.730044 -0.085282
25.845200 18.390400 41.658901 31 31 31 -0.719218 -0.690432 -0.077646
25.624399 18.183001 44.451000 23 23 23 -0.763374 -0.599754 -0.239909
25.377001 18.101000 47.105000 34 34 34 -0.709132 -0.585070 -0.393478
25.123600 18.160700 49.476501 17 17 17 -0.805080 -0.577977 -0.133378
24.647301 18.194201 51.449600 4 4 4 -0.817438 -0.561562 0.128231
24.876699 18.165899 52.174198 30 30 30 -0.718196 -0.692105 -0.072012
24.382000 18.616100 55.374298 22 22 22 -0.418339 -0.908154 -0.015757
24.308599 18.607500 57.586899 9 9 9 -0.323763 -0.934639 -0.147064
24.127501 18.566099 58.058201 32 32 32 -0.394840 -0.917789 -0.042007
24.025600 17.961000 60.802601 33 33 33 -0.692028 -0.716397 -0.088724
23.891600 18.141001 63.099800 13 13 13 -0.545604 -0.837509 -0.029924
25.238600 17.609699 63.652802 29 29 29 -0.397731 -0.909424 -0.121487
24.603600 17.629700 66.281601 15 15 15 -0.435118 -0.895848 -0.090161
24.335800 17.625000 68.994904 13 13 13 -0.391937 -0.918942 -0.043950
24.132099 17.608999 71.842499 1 1 1 -0.382275 -0.922391 -0.055320
24.088400 17.440399 77.401199 31 31 31 -0.309166 -0.917448 0.250411
24.891899 17.224001 77.652496 9 9 9 -0.276187 -0.957523 -0.082885
23.922899 17.965000 84.983002 28 28 28 0.166595 -0.201905 -0.965132
24.625700 18.988600 0.146028 31 31 31 -0.763442 -0.301576 0.571147
24.531401 19.160500 2.961230 25 25 25 -0.007263 -0.711805 0.702340
24.124800 20.197001 5.508040 76 76 76 -0.863917 -0.503582 0.007271
24.130501 19.891600 6.999580 88 88 88 -0.455590 -0.890030 0.016864
24.124701 19.787901 7.627800 40 40 40 -0.388681 -0.909861 0.145191
23.933701 19.777800 9.658710 41 41 41 -0.233666 -0.970879 -0.052861
24.057301 19.729900 12.304000 18 18 18 -0.121200 -0.990812 -0.060021
23.914101 19.709200 13.738100 43 43 43 -0.304587 -0.950654 -0.059015
23.914499 19.708300 15.643700 14 14 14 -0.140458 -0.989972 -0.015053
23.917900 19.660801 17.804399 19 19 19 -0.174254 -0.984458 0.021880
23.993601 19.571199 19.648300 35 35 35 -0.120365 -0.992596 -0.016271
23.893000 19.538601 21.641300 13 13 13 -0.155646 -0.987272 -0.032698
24.118000 19.466801 24.850901 30 30 30 -0.111088 -0.993731 -0.012536
23.884899 19.477501 26.141899 23 23 23 -0.117359 -0.993051 -0.008751
24.115200 19.413200 27.641399 32 32 32 -0.108245 -0.993504 -0.035100
23.945601 19.371401 30.449699 24 24 24 -0.110002 -0.993831 -0.014099
24.093399 19.341999 31.695999 21 21 21 -0.124303 -0.992040 -0.020144
24.069201 19.269100 35.537498 21 21 21 -0.107618 -0.993957 -0.021635
24.081600 19.228201 37.301201 20 20 20 -0.101796 -0.994706 -0.014088
24.018801 19.227100 37.890499 21 21 21 -0.104619 -0.994268 -0.022036
23.991501 19.203899 39.641899 19 19 19 -0.114544 -0.993344 -0.012107
23.899900 19.179199 41.626900 15 15 15 -0.109520 -0.993903 -0.012726
24.086201 19.128401 43.699799 17 17 17 -0.110188 -0.993636 -0.023364
24.024700 19.077999 45.625500 13 13 13 -0.107605 -0.994030 -0.018031
23.939100 19.058001 47.634602 14 14 14 -0.113735 -0.993469 -0.009194
24.075399 18.968300 49.743099 19 19 19 -0.141872 -0.989037 -0.040964
24.056000 18.951300 52.162102 9 9 9 -0.267449 -0.962896 -0.036079
23.960300 18.972000 53.663799 7 7 7 -0.096034 -0.995372 -0.003433
23.904400 18.925699 56.466400 8 8 8 -0.228666 -0.972071 -0.052812
24.023300 18.873899 57.925201 13 13 13 -0.314815 -0.946946 -0.064684
23.983299 18.743601 60.341099 14 14 14 -0.334375 -0.928384 -0.162163
23.914801 22.612200 -0.064629 32 32 32 -0.036325 -0.218352 0.975194
24.875999 22.645901 2.626460 56 56 56 -0.756107 0.021922 -0.654080
24.024700 20.734699 5.027020 21 21 21 -0.936263 -0.348380 -0.045188
23.958000 20.731300 5.622340 70 70 70 -0.933617 -0.352214 -0.065608
24.594000 23.136900 0.164932 24 24 24 0.208951 -0.814260 0.541590
24.630501 23.462400 2.597830 57 57 57 -0.576229 -0.218115 -0.787646
24.014700 25.043900 0.173838 35 35 35 -0.317626 -0.065574 0.945946
24.204100 25.759199 3.296530 18 18 18 -0.256609 0.248713 -0.933967
24.911699 25.845200 8.369140 63 63 63 0.173166 0.019132 -0.984707
24.380199 28.205400 1.265880 117 117 117 -0.560511 -0.828136 0.004288
24.373600 27.977100 2.744600 55 55 55 -0.009727 -0.997340 -0.072235
23.954700 27.711700 4.159330 32 32 32 0.267964 -0.963371 -0.010617
24.100000 27.803699 5.932800 43 43 43 0.283911 -0.958579 0.022826
23.913200 27.796101 7.636910 63 63 63 0.285359 -0.958107 0.024537
23.886900 27.828800 9.621460 35 35 35 0.285556 -0.958191 0.018106
23.926399 27.873699 11.635500 32 32 32 0.285121 -0.958273 0.020453
23.899200 27.911699 13.639500 29 29 29 0.284525 -0.958346 0.024871
23.954000 27.974100 15.653300 31 31 31 0.277852 -0.960404 0.020559
23.920099 28.009100 17.644400 30 30 30 0.271006 -0.962395 0.018745
23.967300 28.062901 19.657900 32 32 32 0.048719 -0.997516 0.050871
23.924000 28.088200 21.643000 29 29 29 0.228213 -0.970106 -0.082548
24.130600 27.201200 25.180201 42 42 42 -0.667130 -0.482269 -0.567762
23.914801 28.146700 26.190599 5 5 5 0.261287 -0.964272 0.043688
23.979700 26.884399 27.753700 46 46 46 -0.619790 -0.323307 -0.715076
23.913900 28.276199 29.652399 10 10 10 0.308781 -0.951132 0.001790
23.893700 28.321100 31.850201 11 11 11 0.297406 -0.954561 0.019062
23.910299 28.414700 35.112099 7 7 7 0.339483 -0.940328 -0.023114
23.917999 28.423401 35.657001 6 6 6 0.506273 -0.849033 -0.151099
25.864201 28.783199 25.189199 10 10 10 0.302697 -0.952745 0.025524
25.625299 28.731199 27.562099 7 7 7 0.285279 -0.958333 0.014592
25.553900 28.729099 28.167299 12 12 12 0.283889 -0.958639 0.020438
25.370399 28.732901 30.228399 10 10 10 0.291066 -0.956332 0.026629
25.145000 28.768600 33.549999 7 7 7 0.338598 -0.940520 0.027810
25.056499 28.737600 33.625000 7 7 7 0.346363 -0.937717 0.026830
24.736799 28.729900 37.050098 8 8 8 0.310129 -0.950474 0.020479
24.527800 28.700701 40.112598 7 7 7 0.363209 -0.930082 0.055016
23.945299 108.848999 20.580700 55 55 55 0.415720 -0.908720 0.037473
24.113600 108.967003 21.658100 58 58 58 0.772467 -0.625422 0.110191
23.974400 108.975998 23.664600 48 48 48 0.503672 -0.863503 0.026022
24.732201 111.112999 22.276100 57 57 57 0.891242 -0.453063 0.020536
26.630899 -23.565599 0.823967 2 2 2 -0.023853 0.089216 0.995727
26.080601 -24.460100 3.240720 1 1 1 -0.919418 -0.221923 -0.324687
26.104601 -22.297001 0.603438 7 7 7 -0.116456 0.139150 0.983400
27.586700 -11.370500 48.915699 4 4 4 -0.915713 -0.389176 -0.100058
26.054199 -9.879320 -0.390864 8 8 8 -0.205929 0.114891 0.971799
26.081600 -9.889700 -0.356218 20 20 20 -0.209703 0.115602 0.970907
27.373301 -10.738500 3.525140 2 2 2 -0.102637 0.994515 0.020131
27.356501 -10.771400 3.795720 1 1 1 -0.124879 0.991518 0.036021
27.163601 -10.735200 5.813000 1 1 1 -0.207432 0.978170 0.012429
27.586000 -11.022800 8.590570 1 1 1 -0.331741 0.941118 0.065148
27.869101 -9.639040 39.035000 10 10 10 -0.887491 0.314310 -0.337000
27.612400 -9.862640 41.778099 6 6 6 -0.878811 0.037150 0.475722
27.232300 -9.615870 45.668098 7 7 7 -0.962791 -0.206186 -0.174703
27.258900 -10.719800 48.960999 5 5 5 -0.986551 -0.128500 -0.101021
26.141899 -7.680550 -0.441275 20 20 20 -0.346986 0.011887 -0.937795
26.183300 -7.801860 -0.349763 41 41 41 -0.296652 -0.011521 -0.954916
27.852301 -9.167790 41.796902 7 7 7 -0.916694 0.399462 0.010068
27.860800 -8.556040 45.452702 5 5 5 -0.977377 0.182513 -0.106874
27.706301 -8.813510 45.847698 4 4 4 -0.996920 0.034628 -0.070362
27.447500 -8.657350 49.184101 3 3 3 -0.993035 -0.043338 -0.109564
26.236401 -7.245790 -0.445092 31 31 31 -0.330320 -0.059057 -0.942020
26.292500 -7.225340 -0.388485 33 33 33 -0.292741 -0.059817 -0.954319
25.921400 -2.924850 -0.563470 31 31 31 -0.305606 0.018999 -0.951968
26.160601 4.639050 -0.720883 6 6 6 -0.047166 0.030676 0.998416
26.131001 4.735110 -0.744763 2 2 2 -0.045891 0.019249 0.998761
26.058201 6.748090 -0.795517 19 19 19 -0.056670 0.017717 0.998236
26.015400 8.767990 -0.805299 5 5 5 -0.083144 -0.067763 0.994231
27.379900 9.959150 1.539410 150 150 150 -0.574966 0.818016 0.016251
27.372101 9.918420 1.656610 138 138 138 -0.839318 0.542242 -0.038963
25.889700 11.189800 -0.649122 1 1 1 -0.256621 0.114149 0.959748
26.626400 12.230100 2.333980 42 42 42 -0.438991 -0.094754 0.893481
26.380600 13.470000 -0.583035 8 8 8 -0.052924 -0.221511 0.973721
26.126801 13.798400 2.331140 2 2 2 -0.243734 -0.034755 0.969219
26.669600 15.042600 -0.447788 2 2 2 -0.106151 -0.374297 0.921213
25.905600 15.973400 0.032018 102 102 102 -0.262914 -0.258962 0.929416
25.926701 14.666200 2.176980 36 36 36 -0.333964 -0.060822 0.940621
27.691999 15.161800 3.615000 17 17 17 -0.631451 -0.152082 0.760356
27.728701 16.629101 61.150600 18 18 18 -0.104425 -0.994533 -0.000736
27.233101 16.610201 63.877499 17 17 17 -0.129786 -0.990462 -0.046255
27.081600 16.562700 66.638298 15 15 15 -0.174631 -0.983220 -0.052744
26.854601 16.562901 69.403603 15 15 15 -0.185960 -0.982517 -0.008897
26.715799 16.521799 72.133102 18 18 18 -0.215856 -0.974766 -0.056904
26.332001 16.464600 74.883904 17 17 17 -0.179298 -0.977827 -0.108199
25.963499 16.690201 1.444230 17 17 17 -0.189199 -0.875263 -0.445104
26.131300 18.473200 2.729250 51 51 51 -0.650326 0.016593 0.759474
27.131300 18.570999 4.386520 17 17 17 -0.960951 -0.265117 -0.079280
27.879900 18.210300 22.404100 49 49 49 -0.739595 -0.630240 -0.236212
27.623899 18.189400 24.828501 5 5 5 -0.785147 -0.485608 0.384355
27.368200 18.218399 27.509600 23 23 23 -0.809831 -0.558014 0.181092
27.364000 18.165899 27.847300 44 44 44 -0.843801 -0.533431 -0.058749
26.881399 18.634300 30.929701 38 38 38 -0.663646 -0.739701 -0.111431
26.632700 18.604300 33.396801 33 33 33 -0.691266 -0.715647 -0.100001
26.624800 18.598600 33.641499 43 43 43 -0.696408 -0.715155 -0.059751
26.380899 18.628401 36.075600 44 44 44 -0.619823 -0.777078 -0.109408
26.122700 18.443701 38.942699 33 33 33 -0.664051 -0.736018 -0.131584
26.107201 18.184000 41.129398 6 6 6 -0.725564 -0.683568 -0.079321
25.972799 17.947300 41.651501 29 29 29 -0.815997 -0.556574 -0.156122
26.490700 17.861401 46.751900 14 14 14 -0.497521 -0.843459 -0.202608
26.535900 17.694201 52.683498 32 32 32 -0.371863 -0.926919 -0.050395
25.963200 17.689100 58.152699 22 22 22 -0.326349 -0.932081 -0.157228
27.361099 17.408899 61.125401 32 32 32 -0.378636 -0.925132 -0.027672
27.207001 17.402100 63.443199 24 24 24 -0.501861 -0.864858 0.012530
26.470699 17.451700 63.735802 14 14 14 -0.341488 -0.939869 -0.005635
26.577000 16.762800 66.882500 10 10 10 -0.193797 -0.980597 0.029525
26.319500 16.784599 69.602699 36 36 36 -0.190907 -0.981605 -0.002612
26.338900 16.706200 69.662598 26 26 26 -0.163951 -0.986455 0.005249
26.272100 17.315599 72.107002 29 29 29 -0.382612 -0.923688 -0.020218
26.066200 17.225700 74.858803 25 25 25 -0.402736 -0.915234 0.012265
25.960400 18.396799 85.346199 21 21 21 0.203423 -0.078229 -0.975961
25.919001 19.166800 2.745160 56 56 56 -0.713905 -0.087121 0.694802
25.974100 19.562099 5.395040 55 55 55 -0.071286 -0.997233 -0.021075
25.913200 19.568100 5.629930 56 56 56 -0.071249 -0.997093 -0.026999
25.914101 19.618299 7.621980 31 31 31 -0.117803 -0.992645 -0.027914
25.943600 19.589001 9.643550 84 84 84 -0.124508 -0.992152 -0.011532
25.998301 19.576900 11.795000 7 7 7 -0.138390 -0.990374 0.002619
26.129700 19.466801 13.839500 49 49 49 -0.108789 -0.993815 -0.022292
26.098600 19.442301 15.645300 50 50 50 -0.118107 -0.992685 -0.025043
25.934000 19.420900 17.653299 45 45 45 -0.118530 -0.992890 -0.010936
26.010401 19.373800 19.650200 45 45 45 -0.115612 -0.993152 -0.016833
26.080299 19.324800 21.636400 43 43 43 -0.114099 -0.993149 -0.025248
25.904900 19.292200 23.613701 36 36 36 -0.106483 -0.994243 -0.011895
26.091200 19.229401 26.288099 29 29 29 -0.112598 -0.993482 -0.017760
25.887600 19.226801 27.610800 29 29 29 -0.116752 -0.992914 -0.022152
26.023100 19.176600 29.614901 25 25 25 -0.105641 -0.994233 -0.018483
25.891800 19.128300 31.623899 31 31 31 -0.113233 -0.993471 -0.013892
26.100201 19.073799 33.641499 25 25 25 -0.358340 -0.933586 0.003022
25.948299 19.065500 35.643398 25 25 25 -0.261922 -0.962503 -0.070598
26.127300 18.792200 38.432400 30 30 30 -0.446627 -0.867145 -0.220419
26.075300 21.885599 5.159340 22 22 22 -0.066244 -0.085016 -0.994175
26.018000 23.447100 -0.042370 54 54 54 -0.283471 -0.954854 0.088869
25.924200 23.361900 1.623020 71 71 71 -0.637638 -0.726054 -0.257418
26.879101 24.653999 3.877170 72 72 72 -0.951406 -0.307519 0.016048
26.406401 25.028299 1.198740 38 38 38 -0.822415 0.543130 -0.169243
26.361000 24.985001 1.745200 58 58 58 -0.833153 0.514082 -0.203902
26.379801 25.965099 4.983330 76 76 76 -0.964021 -0.244335 -0.104709
25.961700 28.256901 1.486370 28 28 28 0.318921 -0.947244 0.031922
25.960199 28.255301 1.631160 32 32 32 0.283842 -0.956393 0.068891
26.069300 27.392300 5.607130 40 40 40 -0.922588 -0.372656 -0.099792
26.129900 27.177799 5.735660 77 77 77 -0.921434 -0.388400 0.010217
25.926600 26.898300 8.413750 59 59 59 -0.873287 -0.303959 -0.380759
25.922300 28.426600 9.617730 15 15 15 0.304054 -0.952547 0.014318
25.894300 28.463200 12.005000 13 13 13 0.349567 -0.933240 0.082867
25.954100 28.527901 13.645700 12 12 12 0.316596 -0.948559 0.001653
25.923901 28.564600 15.631300 13 13 13 0.271579 -0.962322 0.013434
25.892599 28.603901 18.042000 15 15 15 0.274130 -0.961507 0.018885
27.280899 28.667000 2.400220 11 11 11 0.375981 -0.874282 -0.307034
27.156500 28.674101 4.120380 12 12 12 0.283561 -0.948264 0.142787
26.955400 28.685801 6.586920 12 12 12 0.304419 -0.952264 0.022860
26.891600 28.687401 7.640960 12 12 12 0.299620 -0.953780 0.023079
27.311300 28.834499 9.752760 15 15 15 0.278459 -0.960410 0.008563
27.069799 28.803900 12.559900 12 12 12 0.267209 -0.963511 0.015667
26.839899 28.763599 13.777800 14 14 14 0.264071 -0.964287 0.020441
26.526600 28.721100 16.746500 23 23 23 0.245944 -0.969234 0.009844
26.332100 28.723900 18.953300 11 11 11 0.254982 -0.966670 0.023094
26.271400 28.731300 19.650200 10 10 10 0.265653 -0.963882 0.018968
26.097500 28.750900 21.809200 10 10 10 0.288531 -0.957227 0.021591
25.908400 28.765600 24.326401 8 8 8 0.295449 -0.954873 0.030470
26.053301 28.852100 25.617001 9 9 9 0.304054 -0.952420 0.021155
26.709801 31.288700 0.564107 6 6 6 -0.942212 0.190561 0.275542
26.624901 32.077202 1.896800 8 8 8 0.086920 -0.046687 -0.995121
27.381701 112.303001 22.308001 57 57 57 0.688774 -0.723342 0.048650
27.068100 112.251999 24.163300 55 55 55 0.698571 -0.713724 0.050959
27.480499 115.177002 53.999401 32 32 32 0.412842 -0.910090 0.036030
28.707600 -21.725599 2.430010 1 1 1 -0.571798 -0.107638 0.813303
29.857599 -14.047400 39.056400 8 8 8 -0.908086 -0.416056 -0.047720
29.228901 -13.487700 42.622700 5 5 5 -0.903692 -0.418596 -0.090097
28.878500 -13.591900 46.291401 8 8 8 -0.905630 -0.413701 -0.093194
28.558800 -13.575300 49.321201 3 3 3 -0.903152 -0.417364 -0.100617
28.879601 -14.356600 49.663601 4 4 4 -0.903523 -0.416408 -0.101245
27.991600 -12.047500 -0.026335 1 1 1 -0.526813 -0.754091 0.392193
29.873400 -11.775900 28.496799 7 7 7 -0.896974 -0.418238 -0.143229
29.617500 -11.804900 31.186001 8 8 8 -0.905854 -0.419306 -0.060087
29.357901 -11.361300 31.903000 9 9 9 -0.905620 -0.415275 -0.086020
29.125700 -11.527300 34.702499 6 6 6 -0.906661 -0.418464 -0.053418
29.468700 -12.528200 35.639099 6 6 6 -0.898150 -0.417607 -0.137591
28.851200 -11.799900 38.245998 4 4 4 -0.924272 -0.380961 -0.024288
28.369101 -11.564500 42.003899 3 3 3 -0.923587 -0.383216 0.011480
28.091101 -11.824900 46.159100 7 7 7 -0.927996 -0.358059 -0.103041
28.075100 -12.531200 49.082600 5 5 5 -0.900988 -0.420286 -0.107616
27.896000 -10.619500 2.331410 47 47 47 -0.000761 0.999706 -0.024232
28.028700 -11.076300 3.823560 1 1 1 -0.563101 -0.821697 -0.087928
29.631701 -9.613390 21.277201 9 9 9 -0.895717 0.159542 -0.415015
29.369600 -9.817350 24.746201 11 11 11 -0.970288 -0.032374 -0.239776
29.115200 -9.532310 27.438299 6 6 6 -0.979624 0.167126 0.111384
28.872700 -9.574170 28.557100 7 7 7 -0.879124 0.042242 -0.474717
28.875799 -10.186100 31.201500 7 7 7 -0.966174 -0.253563 0.047059
28.610901 -9.769770 31.918600 8 8 8 -0.837688 -0.043766 -0.544393
28.377600 -10.052300 35.441502 8 8 8 -0.958326 -0.198271 -0.205669
28.115601 -10.039700 38.097301 2 2 2 -0.980283 -0.144554 0.134722
28.090300 -10.918000 41.848301 3 3 3 -0.933273 -0.356993 0.039461
29.881100 -9.240910 21.156000 15 15 15 -0.929296 0.340683 -0.142633
29.607599 -9.158040 23.801701 6 6 6 -0.900430 0.434103 0.027949
29.332199 -9.155490 27.407801 4 4 4 -0.923958 0.376791 -0.065802
29.131901 -9.255210 28.383600 12 12 12 -0.934599 0.294273 -0.199819
28.846901 -9.247250 31.139000 10 10 10 -0.931540 0.338806 0.132078
28.851801 -9.249180 31.617500 7 7 7 -0.938601 0.256820 -0.230371
28.525600 -9.263300 34.593201 7 7 7 -0.928573 0.370320 0.024801
28.346600 -8.194980 37.574402 2 2 2 -0.852812 0.407284 0.326852
28.118500 -9.253540 38.988300 9 9 9 -0.915234 0.367325 -0.165587
27.883600 -9.178040 41.735001 5 5 5 -0.915854 0.399548 -0.039651
28.012501 -8.294690 45.947800 4 4 4 -0.971857 0.223618 -0.074094
27.905001 -7.883860 49.298698 4 4 4 -0.996624 0.081674 0.008326
27.925501 -2.723380 -0.496731 1 1 1 -0.220884 0.230463 0.947680
28.130699 5.645700 -0.682880 7 7 7 -0.044018 0.016199 0.998899
28.024700 6.956890 -0.711756 4 4 4 -0.040614 0.018348 0.999006
28.381701 10.123800 -0.406595 59 59 59 -0.216433 -0.969913 -0.111474
28.120899 10.151200 1.483640 72 72 72 -0.026435 -0.999527 0.015739
28.766899 10.384400 1.634280 24 24 24 0.134977 -0.970514 0.199708
28.514601 11.861000 -0.491432 4 4 4 -0.165738 -0.043636 -0.985204
28.369699 13.819300 -0.436706 13 13 13 -0.789408 -0.357655 0.498916
28.123899 14.182200 1.436130 31 31 31 -0.876793 -0.477686 0.055229
27.991199 13.112900 2.954320 27 27 27 -0.410437 -0.491788 0.767910
28.081499 14.071700 3.635550 16 16 16 -0.577672 -0.192668 0.793205
28.023001 14.709900 -0.431027 6 6 6 -0.325840 0.065403 0.943160
28.126499 14.719900 -0.383467 23 23 23 -0.412530 0.051869 0.909466
27.950199 14.761800 1.656200 105 105 105 -0.927236 -0.278936 -0.249855
28.131500 15.175100 4.359520 20 20 20 -0.943241 -0.330791 -0.029551
29.572800 16.653099 44.724300 16 16 16 0.085078 0.021931 -0.996133
29.222500 16.649200 47.466999 14 14 14 0.085939 0.012547 -0.996221
28.890900 16.650000 50.209000 16 16 16 0.065064 -0.764781 -0.640996
28.760099 16.572701 52.958302 21 21 21 0.094236 -0.024281 -0.995254
28.243299 16.654499 55.671501 17 17 17 -0.012298 -0.999548 -0.027435
28.315399 16.598200 58.456501 17 17 17 -0.102226 -0.994642 0.015420
27.910200 16.643600 61.171001 18 18 18 -0.136351 -0.990661 0.000045
27.953300 16.573000 63.956299 15 15 15 -0.151601 -0.987130 -0.050914
27.909000 16.450500 66.728798 18 18 18 -0.136895 -0.990025 -0.033327
27.964600 16.481800 69.506302 15 15 15 -0.212223 -0.976892 -0.025380
29.092800 16.416500 69.610603 15 15 15 -0.170135 -0.985043 -0.027295
28.038799 16.380100 72.277496 17 17 17 -0.242209 -0.968097 -0.064211
27.924101 16.172800 75.020500 17 17 17 -0.305405 -0.946112 -0.107699
29.623699 18.315300 5.091690 126 126 126 -0.686776 -0.695172 0.212307
29.607201 18.201599 5.907780 41 41 41 -0.606052 -0.765445 0.216322
29.362900 18.203800 7.959800 94 94 94 -0.855452 -0.492666 0.159630
29.104799 18.194000 10.553700 93 93 93 -0.886669 -0.457953 0.064017
28.882900 18.256201 12.564700 77 77 77 -0.795115 -0.522463 -0.307936
28.630899 18.450899 14.520000 59 59 59 -0.792952 -0.591356 -0.146714
28.381399 18.441000 17.026100 66 66 66 -0.760938 -0.646826 -0.050877
28.124300 18.472099 19.606001 46 46 46 -0.707869 -0.675040 -0.207947
28.129999 18.225500 19.998400 58 58 58 -0.663160 -0.588148 -0.462926
28.052500 18.073299 21.620800 34 34 34 -0.771144 -0.611706 0.176502
27.909100 18.028799 25.251699 24 24 24 -0.547952 -0.623546 -0.557619
29.048901 17.896200 27.456900 28 28 28 -0.243530 -0.969872 0.006377
28.100000 17.949400 28.015400 24 24 24 -0.551284 -0.832064 -0.061282
28.110500 17.906500 30.692699 36 36 36 -0.522314 -0.848152 -0.088470
27.891300 17.910101 33.185699 24 24 24 -0.475579 -0.875084 0.089742
28.164000 17.838699 33.651001 21 21 21 -0.112842 -0.733551 -0.670201
29.116199 17.680099 36.392899 25 25 25 -0.231326 -0.969158 -0.084975
27.908100 17.771799 38.997799 38 38 38 -0.094144 -0.500983 -0.860321
29.125000 16.938299 42.203499 15 15 15 -0.074822 -0.990905 -0.111842
27.950800 17.645000 44.636799 15 15 15 -0.279537 -0.944911 -0.170298
28.130400 17.560200 47.455799 11 11 11 -0.319899 -0.943192 0.089738
28.582500 16.859900 47.727798 12 12 12 -0.061942 -0.397315 -0.915590
28.291100 16.877701 50.430302 13 13 13 -0.055194 -0.993797 0.096544
28.079901 16.845100 53.064999 21 21 21 -0.074583 -0.997114 0.014201
28.012400 17.433300 55.609402 23 23 23 -0.402257 -0.914711 0.038635
28.071199 16.743000 55.656502 17 17 17 -0.080731 -0.996720 0.005556
27.958200 16.673901 58.414799 16 16 16 -0.082737 -0.996551 -0.006395
27.907301 16.736401 61.172600 16 16 16 -0.168813 -0.985634 0.005340
27.957500 16.764999 63.967899 16 16 16 -0.216827 -0.973561 -0.071863
28.001801 16.742300 66.730202 16 16 16 -0.203853 -0.978993 0.004125
28.087700 19.327801 5.532680 53 53 53 -0.138818 -0.990095 -0.020998
28.082199 19.323999 5.619540 54 54 54 -0.146881 -0.988675 -0.030781
28.083900 19.377501 7.617900 53 53 53 -0.106416 -0.994137 -0.019162
28.076599 19.318199 9.621570 46 46 46 -0.111956 -0.993609 -0.014412
27.895500 19.298800 11.659800 45 45 45 -0.128727 -0.991591 -0.013317
28.101400 19.229799 14.297600 33 33 33 -0.383151 -0.922463 -0.047507
28.028500 19.230000 15.635600 49 49 49 -0.102471 -0.994542 -0.019639
28.128500 18.680000 19.223000 29 29 29 -0.676509 -0.707931 -0.202904
28.009001 18.751400 19.657000 50 50 50 -0.682648 -0.706290 -0.187474
28.525499 28.502701 4.427570 13 13 13 0.033965 -0.808670 0.587281
29.747700 26.942600 8.781030 17 17 17 -0.584770 -0.802755 -0.116744
28.712700 29.049400 2.613860 3 3 3 0.421673 -0.906656 -0.012955
27.930700 28.907600 4.547680 12 12 12 0.251018 -0.966163 0.059330
27.998501 28.977200 5.637570 11 11 11 0.273045 -0.959746 0.065832
27.902500 29.020700 7.633080 12 12 12 0.306718 -0.951453 0.025728
29.427500 115.050003 27.769600 66 66 66 0.407919 -0.912102 0.040886
29.490400 115.292000 31.480000 19 19 19 0.358852 -0.932278 0.045648
29.307501 115.185997 33.164600 50 50 50 0.434182 -0.900239 0.032478
29.331800 115.278000 35.294601 54 54 54 0.413052 -0.910235 0.029313
28.828199 115.074997 36.060600 65 65 65 0.430657 -0.901860 0.034410
28.193100 114.976997 40.909302 60 60 60 0.418503 -0.907464 0.036928
28.736700 115.316002 42.868698 42 42 42 0.413553 -0.909721 0.037181
28.749100 115.362999 43.732201 49 49 49 0.418539 -0.907386 0.038407
28.091801 115.170998 46.511101 48 48 48 0.400947 -0.915398 0.035875
30.093700 -22.242001 0.868256 3 3 3 -0.051006 0.135099 0.989518
31.880400 -17.623301 35.382900 4 4 4 -0.905580 -0.415575 -0.084981
31.878700 -17.674000 35.693401 5 5 5 -0.906515 -0.415769 -0.073256
31.844400 -15.412400 25.111900 7 7 7 -0.889349 -0.416769 -0.188050
31.615000 -15.548700 28.578899 8 8 8 -0.906993 -0.408327 -0.103113
31.341101 -15.615300 31.363001 6 6 6 -0.908301 -0.417205 -0.030476
31.358500 -15.624100 31.619200 5 5 5 -0.905967 -0.419560 -0.056512
31.100401 -15.889500 34.851501 5 5 5 -0.906668 -0.414703 -0.077297
30.814301 -16.088900 38.804001 3 3 3 -0.903850 -0.418084 -0.090892
30.325100 -16.622700 46.055901 6 6 6 -0.903775 -0.416742 -0.097552
31.294100 -13.377600 0.420703 2 2 2 -0.210154 0.175661 -0.961758
31.877001 -13.538300 16.990601 8 8 8 -0.908130 -0.417336 -0.033610
31.874001 -13.537400 17.640100 9 9 9 -0.905434 -0.422673 -0.039201
31.361200 -13.369800 21.398800 7 7 7 -0.904626 -0.416218 -0.091729
31.129400 -13.785300 25.044500 8 8 8 -0.898245 -0.414514 -0.146060
30.878799 -13.812900 28.225201 7 7 7 -0.907706 -0.415914 -0.055551
30.359699 -13.449100 31.383600 5 5 5 -0.909827 -0.410170 -0.063054
30.369801 -13.542600 31.940001 8 8 8 -0.910010 -0.409174 -0.066771
30.131100 -13.803600 35.284199 7 7 7 -0.907995 -0.413905 -0.065021
30.015900 -13.704900 35.636600 4 4 4 -0.909948 -0.399147 -0.112590
30.054501 -14.416400 38.500801 5 5 5 -0.905380 -0.414122 -0.093753
31.444901 -12.610600 10.083800 0 0 0 0.088340 0.085183 -0.992441
31.379700 -11.546200 13.315200 7 7 7 -0.909135 -0.414379 -0.042005
30.750200 -11.536200 14.792500 1 1 1 -0.754046 -0.349631 -0.556033
31.129900 -11.857300 16.902901 9 9 9 -0.910073 -0.410529 -0.056857
30.867001 -11.360100 17.624901 8 8 8 -0.909403 -0.410650 -0.065981
30.624800 -11.844000 21.394300 8 8 8 -0.896619 -0.417525 -0.147466
30.131399 -11.570500 24.908100 9 9 9 -0.897888 -0.419060 -0.134852
30.118999 -12.311100 28.541700 9 9 9 -0.899115 -0.416055 -0.135982
30.110701 -12.843500 31.117100 3 3 3 -0.907969 -0.413621 -0.067156
30.131300 -13.030100 31.999300 6 6 6 -0.906594 -0.416225 -0.069594
29.888399 -13.197500 34.724800 6 6 6 -0.910147 -0.410409 -0.056542
31.128799 -9.577340 6.996030 10 10 10 -0.884186 0.035474 -0.465786
31.022200 -9.545640 9.576350 1 1 1 -0.985525 -0.003261 -0.169500
30.861099 -9.793190 10.609000 10 10 10 -0.969788 -0.104662 -0.220357
30.620600 -9.845780 13.187000 4 4 4 -0.997213 -0.074488 0.004239
30.378500 -9.558000 14.181600 8 8 8 -0.932408 0.121369 -0.340418
30.131100 -9.649270 16.894899 10 10 10 -0.993642 0.055292 0.098070
30.131800 -9.815250 17.693701 10 10 10 -0.969785 -0.054997 -0.237680
30.123699 -10.788700 21.431400 6 6 6 -0.898903 -0.408171 -0.159281
30.110500 -11.302000 24.023500 7 7 7 -0.906238 -0.417168 -0.068582
30.846600 -7.526220 0.246855 18 18 18 -0.303191 -0.046322 0.951803
31.134800 -9.321730 7.133080 16 16 16 -0.893426 0.175668 -0.413438
31.138500 -9.323870 9.526970 2 2 2 -0.914799 0.038908 -0.402031
30.876600 -9.245980 10.554300 18 18 18 -0.927844 0.297003 -0.225599
30.629801 -9.256200 13.196200 7 7 7 -0.924967 0.377923 -0.040115
30.422400 -9.321630 14.386400 2 2 2 -0.930485 0.302656 -0.206389
30.323200 -9.250260 16.740299 3 3 3 -0.921354 0.374903 -0.102734
30.215900 -9.260280 17.624201 16 16 16 -0.929389 0.350400 -0.115999
29.910000 -9.331030 20.315300 5 5 5 -0.958004 0.282254 0.050603
29.896299 -8.754500 23.867201 3 3 3 -0.853518 0.511455 -0.099599
29.909300 -8.152360 27.509800 3 3 3 -0.847023 0.512340 -0.141631
29.889900 -8.026740 27.620701 10 10 10 -0.858673 0.512060 -0.021793
29.905701 -7.471300 31.168900 7 7 7 -0.813146 0.561915 0.151804
30.025400 -7.461980 31.655500 4 4 4 -0.805623 0.592104 0.019617
30.019501 -7.462620 35.182701 3 3 3 -0.654338 0.755676 -0.028207
31.448900 -7.338590 0.334264 6 6 6 -0.388374 0.060430 0.919518
30.974100 -5.363320 2.339090 11 11 11 -0.802621 0.123458 -0.583573
31.655800 -7.307570 14.370900 14 14 14 -0.598933 0.719087 -0.352410
31.649900 -7.307550 16.981600 6 6 6 -0.484555 0.855536 0.182384
31.728100 -7.326060 17.865700 5 5 5 -0.329178 0.928611 -0.171239
31.380600 -7.332200 20.604500 8 8 8 -0.341336 0.884142 0.319035
